NCOLS 267
NROWS 24
XLLCORNER -30.5
YLLCORNER 23.5
CELLSIZE 0.5 
NODATA_value -3.4e+38 
-3.4e+38 -3.4e+38 -3.4e+38 -3.4e+38 -3.4e+38 -3.4e+38 -3.4e+38 -3.4e+38 -3.4e+38 -3.4e+38 -3.4e+38 -3.4e+38 -3.4e+38 -3.4e+38 -3.4e+38 -3.4e+38 -3.4e+38 -3.4e+38 -3.4e+38 -3.4e+38 -3.4e+38 -3.4e+38 -3.4e+38 -3.4e+38 -3.4e+38 -3.4e+38 -3.4e+38 -3.4e+38 -3.4e+38 -3.4e+38 -3.4e+38 -3.4e+38 -3.4e+38 -3.4e+38 -3.4e+38 -3.4e+38 -3.4e+38 -3.4e+38 -3.4e+38 -3.4e+38 -3.4e+38 -3.4e+38 -3.4e+38 -3.4e+38 -3.4e+38 -3.4e+38 -3.4e+38 -3.4e+38 -3.4e+38 268.161010742188 718.246276855469 690.7158203125 -3.4e+38 404.487060546875 252.642532348633 -3.4e+38 -3.4e+38 -3.4e+38 269.882202148438 442.483337402344 482.1533203125 630.613342285156 660.724426269531 971.082214355469 1041.96337890625 824.511108398438 787.60888671875 831.652221679688 863.454467773438 688.719970703125 507.634429931641 468.414459228516 821.719970703125 1348.7744140625 1233.93994140625 1163.59558105469 1124.59777832031 1056.70776367188 871.101135253906 510.827789306641 267.906677246094 106.624443054199 69.9081649780273 -3.4e+38 -3.4e+38 -3.4e+38 -3.4e+38 -3.4e+38 -3.4e+38 -3.4e+38 -3.4e+38 -3.4e+38 -3.4e+38 -3.4e+38 -3.4e+38 -3.4e+38 -3.4e+38 -3.4e+38 -3.4e+38 -3.4e+38 -3.4e+38 -3.4e+38 -3.4e+38 -3.4e+38 -3.4e+38 -3.4e+38 -3.4e+38 -3.4e+38 -3.4e+38 615.156921386719 539.493103027344 405.173767089844 477.033111572266 298.800872802734 -3.4e+38 -3.4e+38 -3.4e+38 -3.4e+38 -3.4e+38 -3.4e+38 -3.4e+38 -3.4e+38 -3.4e+38 -3.4e+38 -3.4e+38 -3.4e+38 -3.4e+38 238.079879760742 108.252815246582 -3.4e+38 -3.4e+38 -3.4e+38 -3.4e+38 531.753356933594 366.363342285156 462.183319091797 538.912231445312 520.381103515625 479.971099853516 544.323303222656 377.585540771484 234.404449462891 218.757781982422 204.014450073242 265.614440917969 237.24333190918 182.927780151367 177.710006713867 186.382217407227 232.774444580078 509.007781982422 802.983337402344 723.497802734375 1560.78662109375 1809.43884277344 1916.2421875 1926.30773925781 1963.38439941406 1755.28894042969 1875.072265625 1999.16333007812 1523.2578125 1195.78552246094 947.655578613281 918.04443359375 1125.88000488281 1221.96887207031 937.484436035156 1013.49444580078 1166.5400390625 1003.18109130859 756.113342285156 709.242248535156 710.768859863281 962.631103515625 1081.30554199219 1073.99438476562 1205.92004394531 1406.51440429688 1428.935546875 1676.66662597656 1512.25439453125 1028.701171875 859.355529785156 794.246643066406 749.417785644531 772.688903808594 906.776672363281 1566.4189453125 2066.21899414062 2230.21118164062 2647.7587890625 2964.36108398438 3012.28784179688 3307.54223632812 3267.50439453125 2670.19897460938 2799.87548828125 3350.03564453125 2816.23876953125 3471.26220703125 3228.14331054688 3357.18432617188 2799.53002929688 2312.3544921875 2742.45336914062 3041.7255859375 2822.38891601562 3507.765625 3295.3955078125 -3.4e+38 -3.4e+38 3698.32885742188 -3.4e+38 4794.0498046875 5272.12890625 5414.91015625 -3.4e+38 5442.66650390625 5178.888671875 4988.2275390625 5212.89453125 5718.62109375 5680.86767578125 5490.0576171875 5401.74462890625 5056.162109375 5013.54443359375 5004.3876953125 4926.30322265625 4927.26220703125 5011.201171875 5064.57568359375 4995.4033203125 4984.296875 4895.3134765625 -3.4e+38 -3.4e+38 -3.4e+38 -3.4e+38 4948.16796875 4866.0712890625 4940.76318359375 4952.7587890625 4892.7998046875 4849.40869140625 4738.52978515625 4616.4423828125 4552.087890625 4567.9423828125 4583.69677734375 4602.66455078125 4548.87109375 4501.34326171875 4525.0966796875 4507.40234375 4457.39892578125 4413.73876953125 4315.7666015625 4293.38330078125 4018.01342773438 3458.5966796875 3566.27880859375 3776.572265625 3752.68212890625 3542.8388671875 3207.88110351562
-3.4e+38 -3.4e+38 -3.4e+38 -3.4e+38 -3.4e+38 -3.4e+38 -3.4e+38 -3.4e+38 -3.4e+38 -3.4e+38 -3.4e+38 -3.4e+38 -3.4e+38 -3.4e+38 -3.4e+38 -3.4e+38 -3.4e+38 -3.4e+38 -3.4e+38 -3.4e+38 -3.4e+38 -3.4e+38 -3.4e+38 -3.4e+38 -3.4e+38 -3.4e+38 -3.4e+38 -3.4e+38 -3.4e+38 -3.4e+38 -3.4e+38 -3.4e+38 -3.4e+38 -3.4e+38 -3.4e+38 -3.4e+38 -3.4e+38 -3.4e+38 -3.4e+38 -3.4e+38 -3.4e+38 -3.4e+38 -3.4e+38 -3.4e+38 -3.4e+38 -3.4e+38 -3.4e+38 -3.4e+38 34.3092575073242 138.752227783203 388.558898925781 782.35888671875 1133.75109863281 984.849975585938 503.691101074219 356.542236328125 594.309997558594 684.144470214844 988.983337402344 992.722229003906 967.718872070312 1065.61889648438 1037.96667480469 1060.12890625 1076.18225097656 941.201110839844 985.905578613281 1126.75219726562 1126.69226074219 902.2822265625 542.286682128906 238.526672363281 120.38444519043 231.279998779297 325.856658935547 515.821105957031 754.075561523438 768.381103515625 577.87109375 427.627777099609 226.705551147461 128.5302734375 72.435188293457 -3.4e+38 -3.4e+38 -3.4e+38 -3.4e+38 -3.4e+38 -3.4e+38 -3.4e+38 -3.4e+38 -3.4e+38 -3.4e+38 -3.4e+38 -3.4e+38 -3.4e+38 -3.4e+38 -3.4e+38 -3.4e+38 -3.4e+38 -3.4e+38 -3.4e+38 -3.4e+38 -3.4e+38 -3.4e+38 -3.4e+38 -3.4e+38 -3.4e+38 -3.4e+38 -3.4e+38 -3.4e+38 -3.4e+38 -3.4e+38 -3.4e+38 -3.4e+38 -3.4e+38 -3.4e+38 -3.4e+38 -3.4e+38 -3.4e+38 -3.4e+38 -3.4e+38 -3.4e+38 -3.4e+38 -3.4e+38 -3.4e+38 542.336547851562 429.586273193359 -3.4e+38 -3.4e+38 -3.4e+38 -3.4e+38 -3.4e+38 442.688690185547 538.115539550781 725.553344726562 788.494445800781 784.67333984375 538.036682128906 355.115570068359 308.131103515625 261.529998779297 206.688888549805 200.793334960938 290.838897705078 272.915557861328 169.946670532227 121.139999389648 132.72444152832 145.613327026367 234.403335571289 407.235565185547 647.744445800781 1557.66662597656 1644.18444824219 1835.31335449219 1911.09777832031 1943.42333984375 1971.78894042969 1799.83776855469 1872.57336425781 1569.73669433594 986.106689453125 821.597778320312 825.277770996094 894.112243652344 868.381103515625 827.349975585938 782.051086425781 726.435546875 721.320007324219 714.898864746094 710.144470214844 708.458862304688 741.010009765625 1067.84216308594 875.08447265625 921.296691894531 887.322204589844 951.968872070312 1095.05114746094 1378.28894042969 891.776672363281 820.181091308594 1149.4677734375 1346.00219726562 1592.32116699219 1743.29553222656 1943.65222167969 2414.71997070312 2639.927734375 2625.06567382812 2860.47436523438 3165.75219726562 3255.90551757812 3372.5 3373.7666015625 3309.41772460938 3062.14892578125 1895.81884765625 1835.65222167969 1419.79443359375 1812.24670410156 1333.74780273438 1107.91333007812 1269.4677734375 1566.57116699219 2556.32104492188 3280.75219726562 2979.09326171875 3527.8056640625 4000.75439453125 4376.64013671875 3984.43212890625 4527.37890625 4656.984375 5141.85009765625 5390.24462890625 5505.30322265625 5351.337890625 5288.3623046875 5218.5400390625 5255.64892578125 5229.1455078125 5139.7998046875 5336.78564453125 5206.7177734375 5205.71337890625 -3.4e+38 -3.4e+38 5174.89990234375 5283.60009765625 5235.4599609375 -3.4e+38 -3.4e+38 4978.2509765625 5099.13671875 4976.4912109375 -3.4e+38 4936.4033203125 5179.490234375 4948.81005859375 -3.4e+38 5069.1376953125 4873.87548828125 4863.99658203125 4770.46875 4630.31982421875 4534.7998046875 4590.5322265625 4511.6220703125 4633.0087890625 -3.4e+38 4649.4033203125 4515.14453125 4387.56884765625 4335.3876953125 4286.5712890625 4406.322265625 4639.31689453125 4362.85791015625 3976.61328125 3823.9189453125 3764.02783203125 3716.68432617188 3577.33325195312 3291.88110351562
-3.4e+38 -3.4e+38 -3.4e+38 -3.4e+38 -3.4e+38 -3.4e+38 -3.4e+38 -3.4e+38 -3.4e+38 -3.4e+38 -3.4e+38 -3.4e+38 -3.4e+38 -3.4e+38 -3.4e+38 -3.4e+38 -3.4e+38 -3.4e+38 -3.4e+38 -3.4e+38 -3.4e+38 -3.4e+38 -3.4e+38 -3.4e+38 -3.4e+38 -3.4e+38 -3.4e+38 -3.4e+38 -3.4e+38 -3.4e+38 -3.4e+38 -3.4e+38 -3.4e+38 -3.4e+38 -3.4e+38 -3.4e+38 -3.4e+38 -3.4e+38 -3.4e+38 -3.4e+38 -3.4e+38 -3.4e+38 -3.4e+38 -3.4e+38 -3.4e+38 -3.4e+38 -3.4e+38 -3.4e+38 94.816032409668 153.387771606445 271.268890380859 335.882232666016 709.384460449219 681.125549316406 482.498901367188 827.851135253906 995.659973144531 1125.07336425781 1202.24670410156 1158.89221191406 1068.77783203125 1029.3955078125 1014.35333251953 1087.17443847656 1200.42004394531 1228.62438964844 1147.96105957031 953.957763671875 863.026672363281 520.311096191406 348.631103515625 204.627777099609 52.5099983215332 -26.8655548095703 -13.3077774047852 41.9277763366699 127.194442749023 203.187774658203 265.283325195312 277.491119384766 81.9477767944336 -3.4e+38 -3.4e+38 -3.4e+38 -3.4e+38 -3.4e+38 -3.4e+38 -3.4e+38 -3.4e+38 -3.4e+38 -3.4e+38 -3.4e+38 -3.4e+38 -3.4e+38 -3.4e+38 -3.4e+38 -3.4e+38 -3.4e+38 -3.4e+38 -3.4e+38 -3.4e+38 -3.4e+38 -3.4e+38 -3.4e+38 -3.4e+38 -3.4e+38 -3.4e+38 -3.4e+38 -3.4e+38 -3.4e+38 -3.4e+38 -3.4e+38 -3.4e+38 -3.4e+38 -3.4e+38 -3.4e+38 -3.4e+38 -3.4e+38 -3.4e+38 -3.4e+38 -3.4e+38 -3.4e+38 -3.4e+38 -3.4e+38 -3.4e+38 -3.4e+38 -3.4e+38 -3.4e+38 -3.4e+38 -3.4e+38 -3.4e+38 -3.4e+38 903.536560058594 1439.37329101562 1177.85559082031 817.407775878906 724.913330078125 510.228881835938 531.477783203125 559.158874511719 483.498901367188 390.051116943359 308.388885498047 277.111114501953 262.954437255859 177.155548095703 164.103332519531 77.6722259521484 82.6488876342773 63.9011116027832 89.7588882446289 179.877777099609 645.337768554688 1543.31225585938 1488.78662109375 1595.22448730469 1764.10107421875 1856.61999511719 1924.77783203125 2034.76892089844 1782.08996582031 1814.62109375 1758.94995117188 1145.26550292969 893.098876953125 990.726684570312 868.404418945312 717.4111328125 715.679992675781 772.318908691406 812.41552734375 781.210021972656 708.890014648438 759.067749023438 920.201110839844 963.671081542969 976.239990234375 1583.84887695312 1374.36450195312 1065.26330566406 941.067749023438 794.095581054688 854.618896484375 883.504455566406 1059.0810546875 1130.38110351562 1709.56665039062 1997.80004882812 2321.07666015625 2549.72436523438 2710.85229492188 2796.7734375 2898.05883789062 2911.72778320312 3053.74780273438 3034.5556640625 3140.24560546875 3013.30322265625 2517.63110351562 2346.4912109375 2482.3388671875 1501.951171875 908.244445800781 813.537780761719 401.244445800781 469.322235107422 789.457763671875 1291.7578125 1999.61328125 2193.08227539062 2165.82788085938 -3.4e+38 4209.56689453125 4393.26220703125 4334.7080078125 4499.48095703125 -3.4e+38 5051.56982421875 5415.82568359375 5466.5556640625 5528.66552734375 5414.16796875 5337.935546875 5375.33642578125 5258.0498046875 5237.59423828125 5159.7021484375 5188.791015625 -3.4e+38 5227.32568359375 5106.40234375 5071.11572265625 5359.3642578125 5247.0087890625 5161.515625 5082.49560546875 5061.47314453125 5057.9833984375 5088.19091796875 5113.8701171875 -3.4e+38 5283.44091796875 5119.68212890625 4896.02685546875 4763.35791015625 4731.048828125 4577.98779296875 4602.6455078125 4639.45654296875 4717.73095703125 4691.16650390625 4677.77685546875 4532.52978515625 4672.68212890625 -3.4e+38 4613.58203125 4649.47119140625 4446.37109375 4310.90087890625 4402.2646484375 4474.5234375 4225.28759765625 4094.2177734375 3873.74560546875 3798.43212890625 3656.2265625 3520.38891601562
-3.4e+38 -3.4e+38 -3.4e+38 -3.4e+38 -3.4e+38 -3.4e+38 -3.4e+38 -3.4e+38 -3.4e+38 -3.4e+38 -3.4e+38 -3.4e+38 -3.4e+38 -3.4e+38 -3.4e+38 -3.4e+38 -3.4e+38 -3.4e+38 -3.4e+38 -3.4e+38 -3.4e+38 -3.4e+38 -3.4e+38 -3.4e+38 -3.4e+38 -3.4e+38 -3.4e+38 -3.4e+38 -3.4e+38 -3.4e+38 -3.4e+38 -3.4e+38 -3.4e+38 -3.4e+38 -3.4e+38 -3.4e+38 -3.4e+38 -3.4e+38 -3.4e+38 -3.4e+38 -3.4e+38 -3.4e+38 -3.4e+38 -3.4e+38 -3.4e+38 -3.4e+38 157.245895385742 253.865600585938 396.052215576172 603.023315429688 952.194458007812 1082.07775878906 1455.5400390625 1225.89782714844 1108.6455078125 1253.35668945312 1069.47998046875 1071.64221191406 1087.72888183594 1077.75891113281 1077.22216796875 1151.43115234375 1221.064453125 1350.68444824219 1297.93225097656 1072.73107910156 861.204467773438 752.754455566406 706.62890625 594.901123046875 400.018890380859 251.177780151367 92.3244476318359 22.7022228240967 21.771110534668 32.8588905334473 31.593334197998 21.9566669464111 20.8733329772949 89.8944473266602 145.073333740234 93.0083694458008 18.5771141052246 -3.4e+38 -3.4e+38 -3.4e+38 -3.4e+38 -3.4e+38 -3.4e+38 -3.4e+38 -3.4e+38 -3.4e+38 -3.4e+38 -3.4e+38 -3.4e+38 -3.4e+38 -3.4e+38 -3.4e+38 -3.4e+38 -3.4e+38 -3.4e+38 -3.4e+38 -3.4e+38 -3.4e+38 -3.4e+38 -3.4e+38 -3.4e+38 -3.4e+38 -3.4e+38 -3.4e+38 -3.4e+38 -3.4e+38 -3.4e+38 -3.4e+38 -3.4e+38 -3.4e+38 -3.4e+38 -3.4e+38 -3.4e+38 -3.4e+38 -3.4e+38 -3.4e+38 -3.4e+38 -3.4e+38 -3.4e+38 -3.4e+38 -3.4e+38 -3.4e+38 -3.4e+38 -3.4e+38 -3.4e+38 -3.4e+38 1065.22863769531 1391.87670898438 940.506652832031 799.580017089844 807.603332519531 718.778869628906 685.200012207031 674.52001953125 628.654418945312 513.816650390625 471.0322265625 423.230010986328 361.776672363281 236.762222290039 109.212219238281 62.189998626709 59.3588905334473 39.9211120605469 44.8444442749023 62.6677780151367 387.756652832031 1253.48779296875 1407.86560058594 1375.59106445312 1556.00561523438 1886.14440917969 1929.28552246094 2075.81567382812 2137.80883789062 1958.32775878906 1921.048828125 2145.81005859375 1438.18664550781 1174.34216308594 1170.38549804688 1058.44665527344 879.617797851562 998.926696777344 1071.15002441406 816.85888671875 716.505554199219 974.847778320312 871.79443359375 1313.19665527344 1117.88781738281 1334.29663085938 1647.68225097656 1571.89001464844 1269.01782226562 831.196655273438 674.696655273438 956.223327636719 1169.22998046875 1554.86999511719 2173.53344726562 2473.60888671875 2452.7744140625 2551.09545898438 2699.78662109375 2676.88110351562 2562.54223632812 2452.91674804688 2711.86889648438 3119.77563476562 3365.89111328125 2843.14672851562 2498.81323242188 2650.5400390625 2332.12451171875 1830.17663574219 1907.30004882812 989.105529785156 558.159973144531 400.059997558594 509.347778320312 911.058898925781 1229.00561523438 2199.33227539062 2535.66674804688 2381.5888671875 -3.4e+38 4789.8310546875 4596.7177734375 4668.30224609375 -3.4e+38 -3.4e+38 4895.7333984375 4968.0400390625 4983.45654296875 4861.8701171875 4912.095703125 5066.7333984375 5214.35205078125 5290.93310546875 5174.66552734375 5216.45654296875 5115.87353515625 4920.015625 4948.58447265625 5114.8056640625 -3.4e+38 4991.00439453125 4984.951171875 5061.775390625 -3.4e+38 -3.4e+38 -3.4e+38 -3.4e+38 5095.1533203125 -3.4e+38 5175.16357421875 5151.81005859375 4928.177734375 4709.31005859375 4674.1689453125 4746.15673828125 4605.3642578125 4748.55322265625 5015.2265625 4861.1279296875 4607.734375 4592.3857421875 4585.37890625 -3.4e+38 4653.361328125 4580.67431640625 4529.984375 4374.91552734375 4227.845703125 4269.53759765625 4181.734375 4061.4921875 3720.74780273438 3451.22900390625 3467.72338867188
-3.4e+38 -3.4e+38 -3.4e+38 -3.4e+38 -3.4e+38 -3.4e+38 -3.4e+38 -3.4e+38 -3.4e+38 -3.4e+38 -3.4e+38 -3.4e+38 -3.4e+38 -3.4e+38 -3.4e+38 -3.4e+38 -3.4e+38 -3.4e+38 -3.4e+38 -3.4e+38 -3.4e+38 -3.4e+38 -3.4e+38 -3.4e+38 -3.4e+38 -3.4e+38 -3.4e+38 -3.4e+38 -3.4e+38 -3.4e+38 -3.4e+38 -3.4e+38 -3.4e+38 -3.4e+38 -3.4e+38 -3.4e+38 -3.4e+38 -3.4e+38 -3.4e+38 -3.4e+38 -3.4e+38 -3.4e+38 -3.4e+38 -3.4e+38 110.141746520996 211.381164550781 382.733337402344 633.806640625 767.469970703125 1062.10998535156 1638.16003417969 1800.435546875 1548.90112304688 987.155578613281 1373.66223144531 1323.73669433594 1239.95886230469 1211.5078125 1187.02893066406 1205.39221191406 1189.1044921875 1244.46997070312 1179.15551757812 1075.48107910156 964.374450683594 865.33447265625 824.595581054688 777.876647949219 686.414428710938 545.145568847656 385.277770996094 195.625549316406 114.335556030273 81.8011093139648 92.3677749633789 80.978889465332 60.3966674804688 49.6800003051758 60.6288871765137 121.523330688477 253.928894042969 309.394439697266 70.5253143310547 -3.4e+38 -3.4e+38 -3.4e+38 -3.4e+38 -3.4e+38 -3.4e+38 -3.4e+38 -3.4e+38 -3.4e+38 -3.4e+38 -3.4e+38 -3.4e+38 -3.4e+38 -3.4e+38 -3.4e+38 -3.4e+38 -3.4e+38 -3.4e+38 -3.4e+38 -3.4e+38 -3.4e+38 -3.4e+38 -3.4e+38 -3.4e+38 -3.4e+38 -3.4e+38 -3.4e+38 -3.4e+38 -3.4e+38 -3.4e+38 -3.4e+38 -3.4e+38 -3.4e+38 -3.4e+38 -3.4e+38 -3.4e+38 -3.4e+38 -3.4e+38 -3.4e+38 -3.4e+38 -3.4e+38 -3.4e+38 -3.4e+38 -3.4e+38 -3.4e+38 -3.4e+38 -3.4e+38 -3.4e+38 392.158477783203 876.644470214844 721.194458007812 671.771118164062 655.0888671875 652.953308105469 743.637756347656 751.624450683594 740.466674804688 735.602233886719 645.097778320312 558.042236328125 472.046661376953 386.405548095703 303.227783203125 148.427780151367 69.9866638183594 52.0666656494141 36.7444458007812 32.8988876342773 28.3833332061768 58.7666664123535 507.261108398438 1184.2177734375 1167.31555175781 1081.90112304688 1600.02331542969 1690.19665527344 2265.32104492188 2329.00439453125 2327.00561523438 2269.04565429688 1956.86108398438 2083.515625 1785.31884765625 1592.96105957031 1196.58337402344 1278.67553710938 1097.52783203125 1127.61889648438 915.760009765625 842.190002441406 1169.87561035156 803.452209472656 1124.9599609375 1218.98217773438 1267.33227539062 1467.66333007812 1809.58776855469 1987.43884277344 1394.2578125 745.928894042969 878.805541992188 1151.90893554688 1186.67883300781 1500.5966796875 1660.19885253906 1961.78112792969 2500.5888671875 2467.6943359375 2192.9755859375 1953.6044921875 2164.37329101562 2848.79443359375 3030.8544921875 2909.10668945312 2232.6611328125 2225.15234375 2581.65234375 1755.37561035156 1027.75109863281 762.754455566406 696.575561523438 398.061096191406 380.01220703125 431.945556640625 487.404449462891 487.850006103516 962.297790527344 1650.65222167969 2127.59106445312 2388.58325195312 -3.4e+38 4855.80224609375 4910.43896484375 4985.015625 5201.67578125 4921.22900390625 5103.96875 4962.185546875 4732.51123046875 -3.4e+38 4922.443359375 4867.46533203125 4941.00244140625 4825.56103515625 4952.92333984375 4810.98095703125 4783.55224609375 5017.39892578125 -3.4e+38 5163.09423828125 -3.4e+38 -3.4e+38 5010.9580078125 5112.41796875 5091.85546875 -3.4e+38 5021.77783203125 4981.1689453125 5051.3564453125 5215.80126953125 5431.46435546875 5148.2421875 5142.4921875 4856.18212890625 4750.90576171875 4843.42333984375 4789.70654296875 4726.33544921875 4842.58349609375 4829.7666015625 4617.11328125 4465.59912109375 4366.59130859375 4395.0888671875 4391.56884765625 4632.2890625 4573.06884765625 4401.541015625 4283.87646484375 4188.84130859375 4177.0556640625 3807.68994140625 3578.2666015625 3510.56567382812
-3.4e+38 -3.4e+38 -3.4e+38 -3.4e+38 -3.4e+38 -3.4e+38 -3.4e+38 -3.4e+38 -3.4e+38 -3.4e+38 -3.4e+38 -3.4e+38 -3.4e+38 -3.4e+38 -3.4e+38 -3.4e+38 -3.4e+38 -3.4e+38 -3.4e+38 -3.4e+38 -3.4e+38 -3.4e+38 -3.4e+38 -3.4e+38 -3.4e+38 -3.4e+38 -3.4e+38 -3.4e+38 -3.4e+38 -3.4e+38 -3.4e+38 -3.4e+38 -3.4e+38 -3.4e+38 -3.4e+38 -3.4e+38 -3.4e+38 -3.4e+38 -3.4e+38 -3.4e+38 -3.4e+38 -3.4e+38 -3.4e+38 128.117492675781 202.94221496582 366.557769775391 588.049987792969 647.0322265625 709.925537109375 1192.67443847656 1721.42004394531 1641.05444335938 1401.77111816406 1444.74108886719 1452.35217285156 1305.46228027344 1341.58447265625 1277.42224121094 1335.74438476562 1325.76892089844 1116.71557617188 954.255554199219 885.604431152344 811.37890625 768.583312988281 719.906677246094 705.687805175781 718.82666015625 574.187805175781 409.892211914062 302.297790527344 181.232223510742 106.952224731445 110.048889160156 116.645553588867 106.389999389648 102.914443969727 119.666664123535 148.779998779297 203.362228393555 294.202209472656 383.556671142578 164.317779541016 71.1257247924805 34.4250335693359 52.1487770080566 70.3664093017578 87.0810775756836 173.539199829102 -3.4e+38 -3.4e+38 -3.4e+38 -3.4e+38 -3.4e+38 -3.4e+38 -3.4e+38 -3.4e+38 -3.4e+38 -3.4e+38 -3.4e+38 -3.4e+38 -3.4e+38 -3.4e+38 329.770751953125 549.717956542969 487.245697021484 240.708236694336 -3.4e+38 -3.4e+38 -3.4e+38 -3.4e+38 -3.4e+38 -3.4e+38 -3.4e+38 -3.4e+38 -3.4e+38 -3.4e+38 -3.4e+38 -3.4e+38 -3.4e+38 -3.4e+38 -3.4e+38 -3.4e+38 -3.4e+38 -3.4e+38 -3.4e+38 -3.4e+38 -3.4e+38 -3.4e+38 -3.4e+38 -3.4e+38 206.572341918945 269.385559082031 626.466674804688 1140.10998535156 739.330017089844 693.743347167969 704.884460449219 798.51220703125 827.607788085938 781.666687011719 732.478881835938 625.776672363281 519.761108398438 423.735565185547 329.677764892578 215.471115112305 91.4077758789062 40.060001373291 33.3744430541992 27.4844436645508 22.831111907959 18.8766670227051 36.418888092041 246.284439086914 581.777770996094 610.215576171875 677.643310546875 991.744445800781 1640.08996582031 2425.50219726562 2561.03881835938 2314.15991210938 1908.13220214844 1589.15441894531 1788.77331542969 2005.556640625 1440.42004394531 1044.03002929688 1013.56335449219 1045.35888671875 1188.18225097656 1176.81555175781 1131.98217773438 1067.60888671875 940.478881835938 871.87890625 1017.98223876953 1330.94995117188 1755.97216796875 2000.79443359375 1386.33227539062 735.503356933594 846.363342285156 870.483337402344 880.786682128906 963.246643066406 1281.38781738281 1949.25219726562 2129.0556640625 1570.4599609375 1707.67663574219 1624.17224121094 2160.693359375 2677.35107421875 2319.83666992188 2119.07666015625 2090.32788085938 2322.14111328125 2312.0087890625 1996.09448242188 959.30224609375 322.275543212891 320.454437255859 363.932220458984 580.7744140625 508.498901367188 352.968902587891 246.313339233398 298.896667480469 366.582214355469 949.438903808594 2001.23217773438 2757.11108398438 4373.7919921875 -3.4e+38 5155.14794921875 -3.4e+38 4920.42431640625 -3.4e+38 4726.52099609375 5109.5576171875 5111.7822265625 5026.46533203125 -3.4e+38 4600.7578125 -3.4e+38 4700.27685546875 4788.0498046875 4823.45654296875 -3.4e+38 5026.17578125 5081.74755859375 4993.3056640625 4893.26123046875 5029.0419921875 -3.4e+38 5015.28125 4944.7646484375 4992.490234375 4993.9775390625 5048.08642578125 4973.095703125 4937.0400390625 -3.4e+38 5217.927734375 5206.43994140625 5001.82666015625 -3.4e+38 4887.9189453125 4842.12353515625 4599.31005859375 4550.0654296875 -3.4e+38 4493.5234375 4460.70654296875 4548.4365234375 4431.33544921875 4344.72021484375 4391.296875 4355.919921875 4345.740234375 4090.32543945312 3963.97436523438 3704.56884765625 3711.59448242188 3831.5400390625
-3.4e+38 -3.4e+38 -3.4e+38 -3.4e+38 -3.4e+38 -3.4e+38 -3.4e+38 -3.4e+38 -3.4e+38 -3.4e+38 -3.4e+38 -3.4e+38 -3.4e+38 -3.4e+38 -3.4e+38 -3.4e+38 -3.4e+38 -3.4e+38 -3.4e+38 -3.4e+38 -3.4e+38 -3.4e+38 -3.4e+38 -3.4e+38 -3.4e+38 -3.4e+38 -3.4e+38 -3.4e+38 -3.4e+38 -3.4e+38 -3.4e+38 -3.4e+38 -3.4e+38 -3.4e+38 -3.4e+38 -3.4e+38 -3.4e+38 -3.4e+38 -3.4e+38 -3.4e+38 -3.4e+38 -3.4e+38 134.445953369141 282.239990234375 416.543334960938 424.983337402344 401.304443359375 593.85888671875 1228.0322265625 2054.693359375 2198.46215820312 1835.71667480469 1507.7822265625 1298.78112792969 1097.09338378906 1043.32775878906 1070.81115722656 1299.90112304688 1106.38110351562 969.553344726562 863.789978027344 787.144470214844 768.942199707031 706.4755859375 657.828918457031 592.609985351562 572.444458007812 620.538879394531 483.766662597656 345 265.404449462891 170.011108398438 146.146667480469 135.584442138672 132.364440917969 124.426666259766 133.827774047852 153.661117553711 189.928894042969 250.195556640625 319.297790527344 399.362213134766 218.393325805664 148.009994506836 120.197776794434 159.921112060547 317.898895263672 427.418884277344 359.26220703125 163.371109008789 75.9532623291016 -3.4e+38 -3.4e+38 -3.4e+38 -3.4e+38 -3.4e+38 -3.4e+38 -3.4e+38 -3.4e+38 -3.4e+38 -3.4e+38 135.587997436523 393.550598144531 384.185546875 358.002227783203 277.804443359375 191.265548706055 113.046028137207 -3.4e+38 -3.4e+38 -3.4e+38 -3.4e+38 -3.4e+38 -3.4e+38 -3.4e+38 -3.4e+38 -3.4e+38 -3.4e+38 -3.4e+38 -3.4e+38 -3.4e+38 -3.4e+38 -3.4e+38 -3.4e+38 -3.4e+38 -3.4e+38 -3.4e+38 -3.4e+38 -3.4e+38 -3.4e+38 -3.4e+38 348.364410400391 449.101104736328 670.91552734375 920.981140136719 758.301086425781 802.283325195312 733.9033203125 859.142211914062 897.186645507812 819.5888671875 756.602233886719 656.895568847656 545.380004882812 419.191101074219 319.290008544922 263.551116943359 176.531112670898 100.452224731445 44.9744453430176 24.635555267334 20.3355560302734 15.2200002670288 11.743332862854 10.8000001907349 48.2533340454102 122.386665344238 110.336669921875 199.751113891602 614.471130371094 1440.21887207031 2526.3056640625 2249.01220703125 2082.5966796875 1790.78662109375 1612.63220214844 1492.77893066406 1724.89001464844 1464.29772949219 1297.57995605469 1660.85998535156 1208.32556152344 1370.59106445312 1117.73669433594 1046.97106933594 1110.38781738281 731.775573730469 868.637756347656 1232.41333007812 1662.10107421875 1729.30444335938 1471.68225097656 945.4755859375 621.664428710938 630.441101074219 704.491088867188 901.554443359375 900.757751464844 1134.6611328125 1308.46337890625 1041.13891601562 1381.31665039062 1705.4755859375 1895.87561035156 1749.19775390625 1961.99560546875 2133.09765625 2246.6044921875 2187.53100585938 1758.76782226562 1329.75219726562 493.093322753906 311.498901367188 274.784454345703 208.387771606445 236.503326416016 188.5322265625 200.061111450195 210.086669921875 225.691116333008 244.919998168945 279.613342285156 464.190002441406 1584.96887207031 3314.435546875 -3.4e+38 4973.96337890625 4874.58984375 4938.27880859375 4902.14892578125 4951.63427734375 4935.1123046875 4895.81201171875 4933.38671875 4895.5087890625 4850.70458984375 -3.4e+38 5003.087890625 4669.81005859375 4688.66796875 4778.0498046875 4844.84423828125 4910.3623046875 4790.22900390625 4747.7109375 5035.267578125 5059.13134765625 4946.8291015625 4757.5390625 4698.1435546875 4698.91650390625 4765.291015625 4729.16796875 4810.39453125 4838.28759765625 4836.51904296875 -3.4e+38 4767.34912109375 4769.796875 4971.1767578125 4972.61328125 4802.603515625 4522.96533203125 4342.58203125 4218.46875 4408.8046875 4492.79541015625 4291.84912109375 4363.50537109375 4265.02978515625 4237.05322265625 4184.072265625 4187.83349609375 4027.63110351562 3734.25659179688 3805.26000976562 3952.48999023438
-3.4e+38 -3.4e+38 -3.4e+38 -3.4e+38 -3.4e+38 -3.4e+38 -3.4e+38 -3.4e+38 -3.4e+38 -3.4e+38 -3.4e+38 -3.4e+38 -3.4e+38 -3.4e+38 -3.4e+38 -3.4e+38 -3.4e+38 -3.4e+38 -3.4e+38 -3.4e+38 -3.4e+38 -3.4e+38 -3.4e+38 -3.4e+38 -3.4e+38 -3.4e+38 -3.4e+38 -3.4e+38 -3.4e+38 -3.4e+38 -3.4e+38 -3.4e+38 -3.4e+38 -3.4e+38 -3.4e+38 -3.4e+38 -3.4e+38 -3.4e+38 -3.4e+38 -3.4e+38 -3.4e+38 -3.4e+38 306.805450439453 322.405548095703 433.481109619141 578.98779296875 890.414428710938 1618.34777832031 2366.61767578125 2389.4267578125 1627.7421875 1100.3466796875 994.454467773438 1066.51892089844 931.823303222656 783.633361816406 870.574462890625 865.633361816406 803.119995117188 816.95556640625 768.64111328125 736.216674804688 682.733337402344 587.797790527344 563.788879394531 554.059997558594 558.898864746094 528.848876953125 413.374450683594 306.477783203125 233.128890991211 173.687774658203 160.322219848633 149.295562744141 146.429992675781 144.644439697266 154.714447021484 172.516662597656 203.554443359375 244.024444580078 304.920013427734 392.191101074219 500.245544433594 535.998901367188 556.30224609375 633.882202148438 662.366638183594 646.783325195312 366.781097412109 165.754440307617 63.4236335754395 35.8652687072754 -3.4e+38 -3.4e+38 -3.4e+38 -3.4e+38 -3.4e+38 -3.4e+38 -3.4e+38 -3.4e+38 -3.4e+38 83.7395706176758 218.383331298828 154.588882446289 151.614440917969 152.491104125977 150.031112670898 178.163330078125 167.085556030273 160.170761108398 165.146987915039 -3.4e+38 -3.4e+38 -3.4e+38 -3.4e+38 -3.4e+38 -3.4e+38 -3.4e+38 -3.4e+38 -3.4e+38 -3.4e+38 -3.4e+38 -3.4e+38 -3.4e+38 -3.4e+38 -3.4e+38 -3.4e+38 -3.4e+38 -3.4e+38 -3.4e+38 136.929702758789 540.071899414062 407.204437255859 761.126647949219 571.028869628906 588.567749023438 762.934448242188 728.953308105469 847.592224121094 874.295532226562 825.66552734375 738.348876953125 662.381103515625 538.830017089844 401.944458007812 316.353332519531 282.832214355469 253.164443969727 173.152221679688 60.2588882446289 19.6322231292725 15.4022226333618 11.0711107254028 9.66444396972656 7.48999977111816 7.40777778625488 18.2355556488037 42.3822212219238 32.0155563354492 235.708892822266 847.87890625 1881.16772460938 2081.84887695312 2389.56103515625 2346.03881835938 1949.16333007812 1580.9599609375 1765.25 2208.44897460938 1724.09997558594 1490.56555175781 1101.42663574219 1736.81005859375 1718.97998046875 1037.38549804688 706.05224609375 656.727783203125 664.562194824219 984.083312988281 1439.29553222656 1583.44445800781 1376.40222167969 947.900024414062 535.892211914062 540.091125488281 577.721130371094 633.528869628906 738.845581054688 850.226684570312 842.866638183594 906.150024414062 1219.0966796875 1161.07775878906 1317.52331542969 1582.85217285156 2038.73889160156 2132.2177734375 2114.30444335938 1972.76672363281 1582.98107910156 1507.89331054688 455.018890380859 180.847778320312 174.357772827148 178.758895874023 170.153335571289 177.765548706055 190.075561523438 202.157775878906 210.292221069336 224.801116943359 242.35221862793 320.115570068359 602.79443359375 1049.17114257812 -3.4e+38 4043.55004882812 4262.2421875 4576.18798828125 4399.5166015625 4552.361328125 5048.21875 5281.6708984375 5116.1357421875 5064.1455078125 5038.02783203125 5100.6435546875 5076.59423828125 5076.44091796875 4850.0791015625 5014.84326171875 5123.4775390625 5097.7353515625 4885.29541015625 4813.541015625 4652.2734375 4716.0146484375 4782.66552734375 4584.1357421875 4580.05224609375 4641.162109375 4751.96240234375 4861.033203125 4768.845703125 4741.60205078125 4806.458984375 4670.83642578125 4782.51123046875 4611.7431640625 4699.25439453125 4812.85986328125 4825.4921875 4826.2900390625 4467.37646484375 4254.0244140625 4340.1298828125 4406.39013671875 4172.76318359375 4270.791015625 4428.9501953125 4252.638671875 4107.6708984375 4033.31103515625 4049.64453125 3845.61669921875 -3.4e+38 3960.04565429688
-3.4e+38 -3.4e+38 -3.4e+38 -3.4e+38 -3.4e+38 -3.4e+38 -3.4e+38 -3.4e+38 -3.4e+38 -3.4e+38 -3.4e+38 -3.4e+38 -3.4e+38 -3.4e+38 -3.4e+38 -3.4e+38 -3.4e+38 -3.4e+38 -3.4e+38 -3.4e+38 -3.4e+38 -3.4e+38 -3.4e+38 -3.4e+38 -3.4e+38 -3.4e+38 -3.4e+38 -3.4e+38 -3.4e+38 -3.4e+38 -3.4e+38 -3.4e+38 -3.4e+38 -3.4e+38 -3.4e+38 -3.4e+38 -3.4e+38 -3.4e+38 -3.4e+38 -3.4e+38 -3.4e+38 300.24609375 849.643310546875 997.166687011719 1224.89440917969 1872.83776855469 1894.35217285156 1842.77893066406 1725.69885253906 1717.41223144531 1204.15661621094 915.221130371094 775.067749023438 891.900024414062 886.48779296875 661.046691894531 684.0966796875 716.179992675781 737.632202148438 695.718872070312 663.642211914062 608.953308105469 582.251098632812 550.704467773438 554.232238769531 536.268859863281 516.98779296875 470.253326416016 359.755554199219 270.387786865234 203.952224731445 165.198883056641 171.704437255859 166.185562133789 164.7177734375 168.715560913086 174.802215576172 190.978881835938 220.644439697266 262.521118164062 315.488891601562 414.390014648438 494.446655273438 559.065551757812 582.190002441406 579.713317871094 567.803344726562 450.190002441406 262.146667480469 240.754440307617 145.093338012695 70.341926574707 40.5165061950684 -3.4e+38 -3.4e+38 -3.4e+38 -3.4e+38 -3.4e+38 -3.4e+38 -3.4e+38 -3.4e+38 41.4922828674316 80.8144454956055 92.6133346557617 129.473327636719 131.619995117188 135.504440307617 142.934448242188 141.267776489258 177.661117553711 189.257781982422 174.090286254883 155.364440917969 151.687774658203 158.159088134766 132.835891723633 -3.4e+38 -3.4e+38 -3.4e+38 -3.4e+38 -3.4e+38 -3.4e+38 14.9728326797485 9.66666698455811 -3.4e+38 -3.4e+38 -3.4e+38 -3.4e+38 -3.4e+38 93.8701095581055 288.683319091797 195.688888549805 618.082214355469 844.489990234375 736.393310546875 574.931091308594 604.481140136719 769.264465332031 807.674438476562 842.408874511719 816.607788085938 767.578918457031 659.007751464844 506.106658935547 391.066680908203 319.627777099609 312.418884277344 304.952209472656 264.894439697266 168.526672363281 71.9188919067383 20.2977771759033 7.67555570602417 6.04222202301025 4.56444454193115 2.80111122131348 5.00111103057861 11.1411113739014 15.7788887023926 62.1100006103516 430.498901367188 1770.76672363281 1992.90441894531 2305.50219726562 2485.53881835938 2389.20776367188 1975.12670898438 1562.07885742188 1645.53002929688 2106.01000976562 1700.90002441406 1455.23327636719 1498.77661132812 1975.03332519531 1588.35339355469 774.067749023438 493.335540771484 510.730010986328 765.253356933594 947.027770996094 1136.8310546875 1105.71557617188 786.424438476562 510.235565185547 480.441101074219 502.0322265625 584.551086425781 755.221130371094 779.278869628906 784.75 1043.40002441406 1077.93444824219 1109.08776855469 1262.27331542969 1818.7177734375 2139.27563476562 2283.50439453125 2167.07006835938 1998.36779785156 1646.93005371094 1747.11560058594 736.248901367188 164.983337402344 156.509994506836 158.486663818359 154.101104736328 169.517776489258 182.043334960938 191.199996948242 202.573333740234 211.561111450195 219.586669921875 243.91667175293 351.496673583984 790.067749023438 1781.04443359375 2489.080078125 3748.42993164062 4773.19091796875 5100.1708984375 4644.9287109375 4756.7080078125 -3.4e+38 5426.90869140625 5434.60986328125 5300.2255859375 5031.97119140625 5114.046875 4997.896484375 4693.73681640625 -3.4e+38 4960.64990234375 4847.77880859375 5088.97314453125 5038.89990234375 4943.587890625 4976.52099609375 5044.19091796875 4879.06201171875 4896.89111328125 4925.9921875 4885.1435546875 4763.09423828125 4780.7021484375 4713.90673828125 4737.77099609375 4896.54443359375 5029.22119140625 4930.51318359375 4647.75439453125 4631.34228515625 4523.8291015625 4573.2177734375 4563.86669921875 4344.73876953125 4174.64794921875 4507.33984375 4259.759765625 3941.09765625 4206.3779296875 4479.29541015625 4298.09130859375 4050.03442382812 4208.75439453125 3931.51123046875 3596.67211914062 4069.26342773438
-3.4e+38 -3.4e+38 -3.4e+38 -3.4e+38 -3.4e+38 -3.4e+38 -3.4e+38 -3.4e+38 -3.4e+38 -3.4e+38 -3.4e+38 -3.4e+38 -3.4e+38 -3.4e+38 -3.4e+38 -3.4e+38 -3.4e+38 -3.4e+38 -3.4e+38 -3.4e+38 -3.4e+38 -3.4e+38 -3.4e+38 -3.4e+38 -3.4e+38 -3.4e+38 -3.4e+38 -3.4e+38 -3.4e+38 -3.4e+38 -3.4e+38 -3.4e+38 -3.4e+38 -3.4e+38 -3.4e+38 -3.4e+38 -3.4e+38 -3.4e+38 -3.4e+38 -3.4e+38 -3.4e+38 437.8115234375 950.147766113281 1331.96997070312 1255.23449707031 1902.80773925781 1546.70776367188 1326.94116210938 1317.48449707031 1091.85888671875 842.023315429688 708.830017089844 736.4033203125 775.867797851562 752.772216796875 627.299987792969 581.424438476562 659.215576171875 656.603332519531 616.937805175781 583.071105957031 557.036682128906 527.003356933594 516.757751464844 506.725555419922 487.405548095703 459.223327636719 403.6533203125 328.01220703125 249.631103515625 201.361114501953 194.142227172852 196.210006713867 193.486663818359 187.464447021484 190.570007324219 200.625549316406 223.772216796875 243.814437866211 284.806671142578 328.811096191406 399.922210693359 533.005554199219 587.558898925781 601.964416503906 637.428894042969 662.493347167969 523.824462890625 303.925567626953 255.651107788086 174.528884887695 115.813331604004 128.179992675781 125.895553588867 127.997779846191 122.484443664551 99.2453079223633 68.9914016723633 -3.4e+38 -3.4e+38 -3.4e+38 58.9712753295898 59.168888092041 67.2322235107422 92.9911117553711 98.5488891601562 109.638885498047 107.066665649414 110.629997253418 158.153335571289 175.851104736328 196.345550537109 214.613327026367 210.002227783203 209.734451293945 208.157775878906 175.101104736328 116.940002441406 65.8785552978516 67.9812316894531 52.5916862487793 23.501859664917 16.404857635498 10.3179483413696 15.4576272964478 30.3866996765137 95.6689300537109 237.940002441406 172.274444580078 249.507781982422 538.067749023438 75.6277770996094 980.83447265625 911.646667480469 875.2744140625 704.2822265625 582.845581054688 565.243347167969 693.028869628906 865.204467773438 820.364440917969 770.789978027344 646.702209472656 529.553344726562 438.302215576172 381.187774658203 340.278900146484 358.878875732422 330.871124267578 257.525543212891 186.225555419922 116.64778137207 34.8744430541992 17.6922225952148 9.30666637420654 4.72888898849487 1.58111107349396 2.58444452285767 5.42666673660278 12.9033336639404 134.874450683594 630.314453125 1359.80334472656 2187.69116210938 2458.3955078125 2397.23876953125 2468.23657226562 2173.99877929688 1680.12780761719 1682.15661621094 2070.95776367188 1684.0810546875 1487.77001953125 1806.99780273438 1999.03552246094 1870.01782226562 430.471099853516 283.706665039062 498.685546875 774.151123046875 1030.19885253906 1284.54333496094 799.70556640625 479.116668701172 500.094451904297 555.267761230469 714.309997558594 747.708862304688 711.634460449219 824.558898925781 1079.82336425781 1138.49890136719 1202.50329589844 1342.27661132812 1778.99108886719 2076.03662109375 2326.55786132812 1827.64331054688 1630.45227050781 1574.58557128906 1452.58666992188 878.658874511719 159.591110229492 140.533340454102 138.660003662109 144.887771606445 161.374450683594 170.653335571289 178.264450073242 186.631103515625 201.088882446289 221.955551147461 242.543334960938 262.709991455078 406.101104736328 1241.79443359375 1620.00439453125 1976.65783691406 3306.9599609375 -3.4e+38 4579.396484375 4948.96875 4779.27978515625 4730.81201171875 5043.12548828125 5341.00537109375 -3.4e+38 5505.0478515625 -3.4e+38 -3.4e+38 5053.64208984375 4902.41015625 4822.06201171875 4971.42578125 4962.7255859375 4996.8701171875 5071.783203125 5079.85107421875 5005.4775390625 5011.7177734375 4936.91650390625 4822.53564453125 4900.2724609375 4974.845703125 5068.7744140625 5121.6123046875 5046.09765625 5025.1953125 5072.57421875 -3.4e+38 4862.9677734375 4745.87353515625 4415.4521484375 4448.29541015625 4756.2353515625 4384.53759765625 4284.783203125 4276.93115234375 4243.595703125 4458.18310546875 4504.47021484375 4122.10888671875 4220.15869140625 4033.99340820312 3716.07446289062 3770.84008789062 3302.9189453125
-3.4e+38 -3.4e+38 -3.4e+38 -3.4e+38 -3.4e+38 -3.4e+38 -3.4e+38 -3.4e+38 -3.4e+38 -3.4e+38 -3.4e+38 -3.4e+38 -3.4e+38 -3.4e+38 -3.4e+38 -3.4e+38 -3.4e+38 -3.4e+38 -3.4e+38 -3.4e+38 -3.4e+38 -3.4e+38 -3.4e+38 -3.4e+38 -3.4e+38 -3.4e+38 -3.4e+38 -3.4e+38 -3.4e+38 -3.4e+38 -3.4e+38 -3.4e+38 -3.4e+38 -3.4e+38 -3.4e+38 -3.4e+38 -3.4e+38 -3.4e+38 -3.4e+38 -3.4e+38 -3.4e+38 -3.4e+38 247.377777099609 868.077758789062 1410.06005859375 1590.69665527344 1230.26892089844 1021.74554443359 1093.201171875 784.117797851562 796.098876953125 714.936645507812 629.989990234375 692.208862304688 659.496643066406 606.682250976562 544.969970703125 567.504455566406 560.454467773438 537.885559082031 510.546661376953 488.331115722656 471.381103515625 451.064453125 435.362213134766 425.279998779297 408.677764892578 366.764434814453 325.048889160156 254.653335571289 229.226669311523 232.57666015625 234.847778320312 225.163330078125 222.27555847168 228.991104125977 259.478881835938 263.748901367188 292.824432373047 318.145568847656 332.314453125 395.118896484375 512.711120605469 578.6533203125 603.83447265625 626.078918457031 620.104431152344 571.816650390625 477.134429931641 369.496673583984 290.556671142578 162.595550537109 225.13444519043 239.718887329102 224.637771606445 195.997772216797 178.479995727539 135.835556030273 63.1315269470215 32.5404777526855 26.0043563842773 26.3203754425049 22.5222225189209 16.6044445037842 58.4633331298828 59.3600006103516 68.5722198486328 84.2766647338867 98.0166702270508 120.111114501953 133.009994506836 165.49333190918 189.664443969727 193.718887329102 122.792221069336 77.0666656494141 4.78000020980835 9.51222229003906 45.843334197998 81.9488906860352 108.11888885498 78.4700012207031 68.3488922119141 38.3444442749023 144.10888671875 127.328887939453 213.89111328125 451.878875732422 360.166656494141 381.776672363281 529.797790527344 547.124450683594 1138.62890625 875.493347167969 902.861083984375 886.67333984375 700.152221679688 587.182250976562 585.37890625 738.768859863281 794.431091308594 696.461120605469 670.830017089844 577.993347167969 491.133331298828 444.277770996094 397.29443359375 365.242218017578 376.542236328125 342.945556640625 277.822235107422 210.202224731445 158.968887329102 110.548889160156 86.5311126708984 57.1677780151367 13.6655559539795 17.6367969512939 10.3436727523804 43.7500495910645 56.5458030700684 227.606948852539 752.380004882812 1079.61999511719 2010.24438476562 2114.515625 2197.49877929688 2132.86889648438 2318.83227539062 1705.33666992188 1832.50671386719 2174.1455078125 1919.81115722656 1861.37219238281 1950.11108398438 2120.11669921875 989.441101074219 302.647766113281 344.671112060547 642.805541992188 1074.88330078125 1484.0400390625 927.563354492188 481.932220458984 522.817749023438 545.314453125 628.54443359375 701.614440917969 834.109985351562 934.466674804688 957.686645507812 1033.60998535156 1041.93334960938 1348.81335449219 1647.45666503906 2093.33227539062 1781.35668945312 1728.0810546875 1243.60888671875 1230.81555175781 1377.38549804688 815.885559082031 138.448883056641 123.839996337891 128.130004882812 140.024444580078 148.801116943359 157.998886108398 171.13444519043 187.462219238281 201.712219238281 216.970001220703 233.847778320312 246.844451904297 264.132232666016 303.301116943359 466.640014648438 1040.71557617188 1447.5400390625 1881.5 3475.96215820312 -3.4e+38 4528.77099609375 -3.4e+38 -3.4e+38 5154.38671875 4875.10107421875 4821.6455078125 -3.4e+38 -3.4e+38 5526.77685546875 -3.4e+38 5198.87646484375 5226.990234375 5181.224609375 5261.52685546875 -3.4e+38 5256.02783203125 5128.984375 5192.81982421875 5220.89453125 5297.8798828125 5008.76123046875 -3.4e+38 4864.0078125 5053.1611328125 5030.13232421875 -3.4e+38 -3.4e+38 4436.84765625 3945.19555664062 4170.39208984375 4515.2509765625 4650.32666015625 4631.15673828125 4447.427734375 4523.85205078125 4334.97900390625 4214.17333984375 4235.31005859375 4619.57568359375 4334.517578125 3861.62548828125 3921.32446289062 4041.53784179688 3206.26000976562 1829.47778320312
-3.4e+38 -3.4e+38 -3.4e+38 -3.4e+38 -3.4e+38 -3.4e+38 -3.4e+38 -3.4e+38 -3.4e+38 -3.4e+38 -3.4e+38 -3.4e+38 -3.4e+38 -3.4e+38 -3.4e+38 -3.4e+38 -3.4e+38 -3.4e+38 -3.4e+38 -3.4e+38 -3.4e+38 -3.4e+38 -3.4e+38 -3.4e+38 -3.4e+38 -3.4e+38 -3.4e+38 -3.4e+38 -3.4e+38 -3.4e+38 -3.4e+38 -3.4e+38 -3.4e+38 -3.4e+38 -3.4e+38 -3.4e+38 -3.4e+38 -3.4e+38 -3.4e+38 -3.4e+38 -3.4e+38 257.882446289062 839.484436035156 1472.64111328125 1071.943359375 765.171081542969 533.592224121094 519.674438476562 511.214447021484 568.396667480469 607.006652832031 582.311096191406 541.62890625 576.972229003906 585.166687011719 590.301086425781 499.9677734375 486.604431152344 476.040008544922 453.325561523438 428.203338623047 395.442230224609 379.088897705078 376.140014648438 410.181121826172 480.474456787109 445.279998779297 404.021118164062 331.365570068359 307.103332519531 288.031097412109 287.746673583984 271.524444580078 260.377777099609 260.776672363281 284.287780761719 299.296661376953 319.127777099609 333.707763671875 392.702209472656 442.941101074219 453.048889160156 580.518859863281 613.52001953125 629.201110839844 631.866638183594 623.605529785156 595.541137695312 535.275573730469 433.745544433594 402.725555419922 325.038879394531 235.496673583984 384.614440917969 341.989990234375 253.945556640625 273.263336181641 276.252227783203 155.139999389648 91.1322250366211 6.54444456100464 19.9577770233154 15.3344440460205 4.39555549621582 26.9466667175293 55.4755554199219 62.3133316040039 53.2799987792969 50.0633316040039 44.4977760314941 57.0944442749023 132.642227172852 162.4677734375 177.015548706055 -15.993332862854 -70.1866683959961 -25.3255558013916 55.147777557373 117.139999389648 164.122222900391 194.132217407227 220.027770996094 138.862228393555 105.616668701172 400.714447021484 220.789993286133 125.273330688477 573.461120605469 523.426696777344 624.873352050781 604.622192382812 768.023315429688 1055.17224121094 876.387756347656 977.602233886719 987.619995117188 862.92333984375 683.606689453125 616.5966796875 702.177795410156 675.45556640625 664.103332519531 695.6533203125 631.039978027344 564.312194824219 525.875549316406 466.037780761719 436.777770996094 420.657775878906 401.674438476562 340.357788085938 276.413330078125 234.478881835938 229.589996337891 182.571105957031 132.238891601562 60.7590789794922 21.8039207458496 -3.4e+38 -3.4e+38 -3.4e+38 -3.4e+38 240.740829467773 692.101135253906 1585.67883300781 2055.70678710938 1681.42114257812 1739.39331054688 1875.18115234375 1877.46337890625 1859.43115234375 1776.21997070312 2112.35546875 2575.34326171875 2393.43115234375 2555.85107421875 1963.56665039062 541.463317871094 337.204437255859 453.592224121094 924.190002441406 1566.38330078125 1390.61669921875 742.394470214844 492.697784423828 519.572204589844 691.557800292969 1051.00219726562 1264.34216308594 1210.37561035156 1021.32330322266 930.715576171875 939.679992675781 1505.0322265625 1841.57666015625 1380.2578125 430.221099853516 650.645568847656 1028.02221679688 1119.18774414062 1074.10888671875 292.265563964844 110.35888671875 111.02889251709 119.765556335449 131.7177734375 144.881103515625 158.596664428711 171.138885498047 183.306671142578 196.131103515625 210.043334960938 221.88444519043 232.350006103516 245.363327026367 254.235549926758 258.064453125 373.765563964844 931.925537109375 1370.26000976562 1504.37670898438 1560.82336425781 2467.03100585938 3674.62890625 3281.47998046875 -3.4e+38 4943.31201171875 4887.5078125 4820.27783203125 -3.4e+38 -3.4e+38 -3.4e+38 5420.78125 5349.3134765625 5346.43017578125 5316.97998046875 5045.466796875 5112.35888671875 5094.30224609375 4892.92578125 5111.4609375 5032.74658203125 4821.5556640625 4287.35009765625 4658.5419921875 4995.85546875 5055.91796875 4779.4267578125 4450.59130859375 4251.70556640625 4129.546875 -3.4e+38 3947.5732421875 4513.2509765625 -3.4e+38 4622.75537109375 4515.361328125 4226.2646484375 4131.34765625 4281.533203125 -3.4e+38 4362.9580078125 4184.822265625 3993.59106445312 4333.943359375 2567.56567382812 1612.98889160156
-3.4e+38 -3.4e+38 -3.4e+38 -3.4e+38 -3.4e+38 -3.4e+38 -3.4e+38 -3.4e+38 -3.4e+38 -3.4e+38 -3.4e+38 -3.4e+38 -3.4e+38 -3.4e+38 -3.4e+38 -3.4e+38 -3.4e+38 -3.4e+38 -3.4e+38 -3.4e+38 -3.4e+38 -3.4e+38 -3.4e+38 -3.4e+38 -3.4e+38 -3.4e+38 -3.4e+38 -3.4e+38 -3.4e+38 -3.4e+38 -3.4e+38 -3.4e+38 -3.4e+38 -3.4e+38 -3.4e+38 -3.4e+38 -3.4e+38 -3.4e+38 -3.4e+38 -3.4e+38 314.408416748047 731.133361816406 1017.28112792969 785.394470214844 480.347778320312 409.312225341797 483.57666015625 640.018859863281 654.796691894531 634.872192382812 571.837768554688 550.193359375 532.412231445312 527.922241210938 497.067779541016 523.12109375 495.350006103516 443.515563964844 373.901123046875 371.194458007812 326.042236328125 285.445556640625 331.038879394531 364.859985351562 462.827789306641 486.383331298828 525.796691894531 443.160003662109 391.970001220703 384.748901367188 341.936676025391 320.232208251953 302.638885498047 293.972229003906 307.628875732422 321.9677734375 328.711120605469 367.222229003906 398.002227783203 539.22998046875 585.713317871094 623.094421386719 647.353332519531 653.2177734375 656.783325195312 647.404418945312 637.822204589844 604.757751464844 555.136657714844 473.733337402344 443.454437255859 419.701110839844 307.638885498047 383.694458007812 390.497772216797 228.247772216797 233.460006713867 284.707763671875 152.929992675781 88.3566665649414 115.172225952148 51.3188896179199 71.9800033569336 48.2188873291016 36.1855545043945 89.7111129760742 101.762222290039 84.7188873291016 75.6100006103516 72.3322219848633 68.9700012207031 62.0499992370605 37.7566680908203 78.6788864135742 -70.1022186279297 -75.5999984741211 -12.2722225189209 107.72444152832 185.395553588867 227.295562744141 251.712219238281 72.0611114501953 12.1711111068726 120.104446411133 532.785583496094 598.155578613281 22.7566661834717 511.227783203125 929.672241210938 952.931091308594 187.372222900391 1032.40222167969 1025.92333984375 748.525573730469 1020.78112792969 1090.87890625 809.037780761719 757.08447265625 749.682250976562 830.571105957031 785.9033203125 756.353332519531 753.922241210938 726.997802734375 675.443359375 616.001098632812 588.974426269531 534.772216796875 490.048889160156 419.883331298828 364.296661376953 338.495544433594 302.042236328125 294.207763671875 251.672225952148 204.847778320312 90.3012237548828 -3.4e+38 -3.4e+38 -3.4e+38 -3.4e+38 -3.4e+38 14.3303575515747 328.693084716797 874.658874511719 1727.35217285156 1733.92663574219 1812.26550292969 1866.79553222656 1913.82885742188 1877.44445800781 1820.28332519531 1805.1611328125 2166.90234375 2484.18994140625 2695.13110351562 2222.42333984375 1294.96228027344 677.187805175781 452.131103515625 654.896667480469 1581.44226074219 1768.99328613281 1364.40441894531 853.815551757812 895.006652832031 1145.66552734375 1103.68884277344 1339.35668945312 1275.70666503906 893.823303222656 859.535583496094 1033.43994140625 1752.22668457031 2072.5087890625 1304.79553222656 124.672225952148 224.331115722656 668.056640625 805.54443359375 614.27001953125 123.573333740234 97.4266662597656 104.682220458984 117.752220153809 130.956665039062 142.935562133789 156.160003662109 177.481109619141 187.196670532227 194.722229003906 205.255554199219 214.475555419922 222.868896484375 229.812225341797 231.125549316406 235.687774658203 228.110000610352 242.472229003906 505.776672363281 1057.3388671875 1067.15002441406 1555.10217285156 1706.6611328125 2625.54565429688 3540.20678710938 -3.4e+38 4954.27001953125 5187.79345703125 4919.17578125 4876.56005859375 4873.02099609375 4905.91650390625 5109.90771484375 4843.412109375 4778.677734375 4478.23779296875 4434.16552734375 4274.734375 4215.88330078125 4705.9287109375 4745.45458984375 4350.9990234375 4315.0078125 4352.69775390625 4546.92333984375 4595.0791015625 4597.2177734375 4346.6298828125 3894.82006835938 3409.00341796875 2625.06787109375 3516.80322265625 4126.9501953125 4520.56103515625 4652.55224609375 4312.4912109375 4369.017578125 4013.15991210938 3806.18994140625 4018.76782226562 4408.06103515625 4084.18432617188 4029.39892578125 4295.830078125 2478.76782226562 1982.04553222656
-3.4e+38 -3.4e+38 -3.4e+38 -3.4e+38 -3.4e+38 -3.4e+38 -3.4e+38 -3.4e+38 -3.4e+38 -3.4e+38 -3.4e+38 -3.4e+38 -3.4e+38 -3.4e+38 -3.4e+38 -3.4e+38 -3.4e+38 -3.4e+38 -3.4e+38 -3.4e+38 -3.4e+38 -3.4e+38 -3.4e+38 -3.4e+38 -3.4e+38 -3.4e+38 -3.4e+38 -3.4e+38 -3.4e+38 -3.4e+38 -3.4e+38 -3.4e+38 -3.4e+38 -3.4e+38 -3.4e+38 -3.4e+38 -3.4e+38 -3.4e+38 -3.4e+38 178.496536254883 403.726654052734 533.957763671875 492.006652832031 330.288879394531 436.364440917969 508.516662597656 553.728881835938 568.956665039062 550.797790527344 520.130004882812 494.351104736328 463.98779296875 467.314453125 464.175567626953 434.70556640625 391.775543212891 416.131103515625 393.085540771484 348.354431152344 303.322235107422 250.380004882812 291.893341064453 386.474456787109 434.754455566406 469.441101074219 570.303344726562 573.623352050781 518.383361816406 478.821105957031 463.736663818359 387.352233886719 372.368896484375 342.741119384766 331.67333984375 341.0322265625 364.878875732422 412.934448242188 488.802215576172 524.658874511719 642.5966796875 687.681091308594 671.005554199219 648.018859863281 629.400024414062 631.314453125 600.848876953125 605.654418945312 595.179992675781 607.25 554.671081542969 536.119995117188 603.450012207031 516.10888671875 447.393341064453 354.223327636719 285.483337402344 180.982223510742 278.383331298828 147.792221069336 145.935562133789 196.373336791992 145.966659545898 122.114440917969 102.876663208008 63.3066673278809 84.2466659545898 121.226669311523 117.562225341797 111.413330078125 106.867774963379 107.055557250977 102.158889770508 93.8199996948242 80.9811096191406 41.831111907959 36.2366676330566 93.9100036621094 171.651107788086 185.797775268555 171.445556640625 163.665557861328 156.361114501953 67.4611129760742 202.092224121094 327.574432373047 711.474426269531 132.036666870117 151.524444580078 1035.177734375 1021.89221191406 50.5277786254883 1085.54113769531 1147.42883300781 778.337768554688 850.702209472656 1035.86999511719 901.571105957031 883.768859863281 827.006652832031 856.257751464844 898.008911132812 868.036682128906 820.682250976562 773.5966796875 734.167785644531 701.62890625 667.166687011719 622.743347167969 555.515563964844 488.025543212891 420.812225341797 384.528900146484 350.581115722656 321.67333984375 298.57666015625 252.946670532227 166.226669311523 58.8685264587402 -3.4e+38 -3.4e+38 -3.4e+38 -3.4e+38 -3.4e+38 221.035858154297 699.343322753906 1063.43994140625 1646.23559570312 1387.35668945312 1307.42224121094 1420.30334472656 1776.91333007812 1780.77661132812 1743.13891601562 1902.70227050781 2088.18212890625 1812.86450195312 1334.10339355469 1937.44665527344 859.030029296875 574.614440917969 671.787780761719 1421.00891113281 1879.47448730469 1662.79663085938 859.632202148438 712.803344726562 667.954467773438 656.991088867188 768.44775390625 984.994445800781 1050.68005371094 1020.07666015625 1162.80773925781 1936.67553710938 2094.62670898438 768.880004882812 78.4288864135742 90.0955581665039 276.488891601562 308.029998779297 173.663330078125 86.3766632080078 89.6233367919922 100.718887329102 113.133331298828 124.403335571289 141.212219238281 178.479995727539 200.043334960938 209.534439086914 224.2822265625 226.630004882812 229.77555847168 220.652221679688 217.885559082031 215.61555480957 215.051116943359 206.55778503418 197.084442138672 187.527770996094 196.298889160156 203.979995727539 440.484436035156 618.510009765625 1452.48889160156 1868.65783691406 3066.07885742188 4448.0322265625 -3.4e+38 -3.4e+38 4966.17333984375 4954.0546875 4995.60791015625 4900.35009765625 4878.6279296875 -3.4e+38 -3.4e+38 5048.3544921875 4896.94873046875 4722.35205078125 4748.23779296875 5074.12353515625 4785.796875 4921.015625 -3.4e+38 4821.4365234375 4655.50537109375 4400.82763671875 4085.87329101562 3016.30444335938 1625.77551269531 2461.20776367188 2340.80102539062 3495.14111328125 3754.72119140625 3852.2978515625 4483.95458984375 3941.73657226562 4004.81323242188 3659.54321289062 3960.6123046875 4279.4111328125 3785.35766601562 3807.87451171875 3517.61328125 3004.89233398438 2522.3056640625
-3.4e+38 -3.4e+38 -3.4e+38 -3.4e+38 -3.4e+38 -3.4e+38 -3.4e+38 -3.4e+38 -3.4e+38 -3.4e+38 -3.4e+38 -3.4e+38 -3.4e+38 -3.4e+38 -3.4e+38 -3.4e+38 -3.4e+38 -3.4e+38 -3.4e+38 -3.4e+38 -3.4e+38 -3.4e+38 -3.4e+38 -3.4e+38 -3.4e+38 -3.4e+38 -3.4e+38 968.262084960938 -3.4e+38 -3.4e+38 -3.4e+38 -3.4e+38 -3.4e+38 -3.4e+38 -3.4e+38 -3.4e+38 -3.4e+38 123.825126647949 159.234237670898 295.556671142578 367.549987792969 311.526672363281 357.618896484375 472.302215576172 502.144439697266 486.555541992188 436.792236328125 449.713348388672 447.075561523438 446.267791748047 436.322235107422 428.323333740234 419.671112060547 406.573333740234 387.236663818359 364.917785644531 341.394439697266 321.827789306641 294.912231445312 255.880004882812 261.664459228516 318.331115722656 402.549987792969 441.565551757812 538.395568847656 614.977783203125 650 619.438903808594 579.221130371094 512.882202148438 468.465545654297 433.068878173828 375.093322753906 381.733337402344 417.242218017578 446.880004882812 478.024444580078 489.377777099609 506.102233886719 568.731140136719 593.862243652344 593.813354492188 589.468872070312 588.768859863281 529.884460449219 456.111114501953 475.730010986328 542.322204589844 627.865539550781 617.731140136719 508.092224121094 505.476654052734 511.285552978516 517.914428710938 432.853332519531 378.997772216797 318.167785644531 251.518890380859 229.068893432617 201.092224121094 174.561111450195 215.494445800781 168.265548706055 134.437774658203 102.473335266113 86.6777801513672 133.145553588867 132.422225952148 136.176666259766 137.533340454102 133.734451293945 134.022216796875 126.943336486816 120.125556945801 137.697784423828 149.477783203125 182.915557861328 213.71110534668 193.241104125977 183.5322265625 126.514442443848 133.60888671875 83.4899978637695 234.382217407227 443.019989013672 703.047790527344 513.781127929688 134.212936401367 542.032409667969 805.587097167969 144.177520751953 426.194244384766 1041.20336914062 965.280029296875 861.210021972656 975.586669921875 997.424438476562 944.54443359375 866.213317871094 899.072204589844 960.742248535156 940.442199707031 897.690002441406 840.503356933594 786.704467773438 745.763305664062 732.42333984375 678.724426269531 608.756652832031 530.706665039062 468.9033203125 415.388885498047 378.707763671875 354.700012207031 318.543334960938 274.912231445312 204.387771606445 76.1479263305664 -3.4e+38 -3.4e+38 -3.4e+38 -3.4e+38 -3.4e+38 111.670074462891 272.887786865234 466.272216796875 737.169982910156 879.440002441406 1194.78112792969 1103.67553710938 1146.67224121094 1206.31115722656 1119.71447753906 1122.12438964844 1504.15441894531 1145.26330566406 680.617797851562 970.043334960938 1079.85217285156 1006.47442626953 1048.0810546875 1326.31115722656 1508.99328613281 1470.98559570312 1504.38110351562 820.324462890625 529.831115722656 512.04443359375 573.840026855469 668.476684570312 648.438903808594 712.772216796875 1344.65112304688 1729.13330078125 1529.37890625 684.743347167969 57.0088882446289 55.6011123657227 61.9799995422363 70.1988906860352 74.4100036621094 79.4477767944336 94.6277770996094 107.286666870117 113.856666564941 131.093338012695 166.476669311523 197.716659545898 223.947784423828 264.051116943359 292.287780761719 303.088897705078 312.817779541016 274.617767333984 246.918884277344 209 197.334442138672 189.855560302734 180.02555847168 168.324447631836 167.533340454102 168.185562133789 149.186660766602 159.169998168945 458.792236328125 1165.79553222656 1689.81335449219 1853.42224121094 1711.48107910156 1781.99328613281 2608.12109375 -3.4e+38 4877.701171875 -3.4e+38 5379.47998046875 4893.87890625 4872.62109375 4723.81884765625 5013.81884765625 4769.9609375 -3.4e+38 5411.4755859375 4979.09326171875 4697.3857421875 4958.0546875 -3.4e+38 4629.58544921875 2952.46215820312 2027.33557128906 1853.52783203125 965.257751464844 1077.86889648438 990.805541992188 2399.98999023438 2933.14990234375 3730.10668945312 3713.4267578125 3619.31665039062 3620.4912109375 3555.38671875 3847.484375 3888.77661132812 3421.9521484375 3484.57006835938 2865.330078125 2338.65551757812 2578.63452148438
-3.4e+38 -3.4e+38 -3.4e+38 -3.4e+38 -3.4e+38 -3.4e+38 -3.4e+38 -3.4e+38 -3.4e+38 -3.4e+38 -3.4e+38 -3.4e+38 -3.4e+38 -3.4e+38 -3.4e+38 -3.4e+38 -3.4e+38 -3.4e+38 -3.4e+38 -3.4e+38 -3.4e+38 -3.4e+38 -3.4e+38 -3.4e+38 -3.4e+38 -3.4e+38 -3.4e+38 -3.4e+38 -3.4e+38 -3.4e+38 -3.4e+38 -3.4e+38 -3.4e+38 -3.4e+38 -3.4e+38 -3.4e+38 158.440414428711 261.258880615234 230.564437866211 413.707763671875 485.01220703125 511.167785644531 498.568878173828 477.363342285156 447.149993896484 394.187774658203 402.493347167969 420.260009765625 410.124450683594 420.996673583984 404.924438476562 392.668884277344 389.235565185547 386.799987792969 370.988891601562 351.158874511719 332.377777099609 330.471099853516 290.019989013672 226.585556030273 253.744445800781 325.844451904297 368.863342285156 441.408874511719 540.768859863281 421.367767333984 427.381103515625 440.015563964844 537.626647949219 453.042236328125 481.181121826172 500.377777099609 463.627777099609 410.690002441406 422.559997558594 458.344451904297 470.534454345703 476.341125488281 514.728881835938 507.754455566406 517.521118164062 504.013336181641 520.60888671875 524.785583496094 517.392211914062 484.461120605469 466.511108398438 490.278900146484 488.429992675781 486.036651611328 437.140014648438 442.194458007812 501.323333740234 557.95556640625 634.22998046875 671.219970703125 505.888885498047 360.984436035156 271.4677734375 249.917770385742 209.827774047852 187.110000610352 174.763336181641 155.816665649414 126.732223510742 104.021110534668 136.784439086914 141.287780761719 154.513336181641 160.449996948242 156.354446411133 157.834442138672 166.162216186523 147.715560913086 141.515548706055 166.877777099609 200.671112060547 200.735549926758 224.554443359375 232.603332519531 146.526672363281 117.24666595459 101.458885192871 266.978881835938 404.746673583984 662.541137695312 600.951110839844 233.624298095703 -3.4e+38 -3.4e+38 -3.4e+38 -3.4e+38 533.813354492188 999.44775390625 1293.685546875 1134.11999511719 1029.02893066406 921.204467773438 883.188903808594 988.291137695312 1015.56555175781 966.798889160156 906.078918457031 945.426696777344 918.314453125 793.484436035156 737.58447265625 697.12109375 620.525573730469 567.906677246094 504.791107177734 450.474456787109 407.464447021484 365.39111328125 310.372222900391 277.908874511719 216.745559692383 103.754447937012 25.1538467407227 -3.4e+38 -3.4e+38 -3.4e+38 -3.4e+38 -3.4e+38 -3.4e+38 594.833679199219 653.750854492188 669.618896484375 847.351135253906 1020.63000488281 871.138916015625 759.207763671875 785.966674804688 993.950012207031 804.934448242188 589.818908691406 624.030029296875 418.824432373047 448.263336181641 592.951110839844 868.445556640625 963.156677246094 1257.07336425781 1498.65441894531 1459.38781738281 1450.04223632812 763.372192382812 604.063354492188 587.92333984375 627.048889160156 782.167785644531 1246.4755859375 1471.27893066406 1452.40222167969 1341.01782226562 890.454467773438 50.7122230529785 52.093334197998 61.7055549621582 63.8222236633301 70.6211090087891 100.63444519043 125.266670227051 116.566665649414 135.723327636719 169.501113891602 228.068893432617 273.505554199219 298.754455566406 320.085540771484 341.924438476562 426.261108398438 454.438903808594 364.966674804688 285.146667480469 193.023330688477 182.215560913086 179.888885498047 168.598892211914 154.940002441406 148.412216186523 148.381103515625 139.994445800781 124.078887939453 133.676666259766 246.585556030273 389.510009765625 582.895568847656 642.4033203125 478.474456787109 804.573303222656 1475.90002441406 1729.90002441406 3017.91674804688 4371.59326171875 3591.90234375 -3.4e+38 4924.09765625 4306.017578125 4503.47216796875 3450.07104492188 3942.90771484375 4005.208984375 3142.90893554688 3741.05883789062 4556.767578125 3035.92114257812 1948.7822265625 1516.58996582031 917.318908691406 492.617767333984 166.664443969727 145.270004272461 612.668884277344 2458.71337890625 2210.44213867188 1816.44555664062 2554.28662109375 3077.16455078125 3102.9921875 3635.06005859375 2980.8310546875 3167.75219726562 2930.0400390625 2734.34545898438 2224.77001953125 2661.52783203125
-3.4e+38 -3.4e+38 -3.4e+38 -3.4e+38 -3.4e+38 -3.4e+38 -3.4e+38 -3.4e+38 -3.4e+38 -3.4e+38 -3.4e+38 -3.4e+38 -3.4e+38 -3.4e+38 -3.4e+38 -3.4e+38 -3.4e+38 -3.4e+38 -3.4e+38 -3.4e+38 -3.4e+38 -3.4e+38 -3.4e+38 -3.4e+38 -3.4e+38 -3.4e+38 -3.4e+38 -3.4e+38 -3.4e+38 -3.4e+38 -3.4e+38 -3.4e+38 -3.4e+38 -3.4e+38 52.7931022644043 121.169998168945 243.619995117188 289.67333984375 226.185562133789 328.386657714844 473.973327636719 508.932220458984 483.122222900391 457.252227783203 434.127777099609 418.524444580078 384.735565185547 337.602233886719 359.474456787109 374.434448242188 379.038879394531 393.942230224609 430.524444580078 457.337768554688 413.366668701172 360.568878173828 329.398895263672 321.910003662109 289.477783203125 231.695556640625 209.949996948242 302.334442138672 322.244445800781 353.246673583984 355.9677734375 309.664459228516 321.109985351562 349.648895263672 389.615570068359 466.188903808594 498.978881835938 510.255554199219 504.001098632812 451.911102294922 478.529998779297 464.896667480469 476.019989013672 478.98779296875 509.603332519531 518.933349609375 525.456665039062 489.661102294922 512.194458007812 533.07666015625 526.258911132812 502.132232666016 461.299987792969 414.913330078125 380.933319091797 383.677764892578 421.683319091797 462.741119384766 490.646667480469 589.354431152344 697.646667480469 855.972229003906 646.321105957031 394.709991455078 302.226654052734 250.100006103516 225.736663818359 214.195556640625 193.354446411133 169.364440917969 141.812225341797 129.915557861328 168.176666259766 172.438888549805 190.055557250977 201.606674194336 192.542221069336 182.798889160156 215.836669921875 197.770004272461 174.17333984375 166.527770996094 208.015548706055 81.7366638183594 223.068893432617 269.774444580078 199.763336181641 158.737777709961 159.623336791992 160.478881835938 364.363342285156 573.018859863281 475.706665039062 579.92333984375 193.215881347656 -3.4e+38 -3.4e+38 -3.4e+38 150.917404174805 329.527770996094 1035.26550292969 1327.94555664062 1177.79553222656 1018.09777832031 976.409973144531 1017.29333496094 1029.77783203125 992.993347167969 1011.01666259766 1144.48669433594 1067.04333496094 958.852233886719 800.5 718.215576171875 659.549987792969 570.66552734375 533.216674804688 529.681091308594 459.572235107422 406.395568847656 365.320007324219 297.388885498047 245.270004272461 137.707778930664 45.7568817138672 22.6560688018799 -3.4e+38 -3.4e+38 -3.4e+38 -3.4e+38 -3.4e+38 -3.4e+38 -3.4e+38 493.647064208984 716.686645507812 728.732238769531 708.9677734375 579.599975585938 316.511535644531 264.267669677734 44.0510787963867 297.216674804688 667.461120605469 508.303344726562 397.643341064453 381.483337402344 436.667785644531 540.206665039062 757.3388671875 1381.36779785156 1311.53112792969 1221.15441894531 1192.43444824219 1016.52667236328 932.010009765625 1094.1455078125 1318.62561035156 1334.50329589844 1313.34106445312 1222.11450195312 1149.88671875 583.797790527344 45.7755546569824 48.7033348083496 65.8866653442383 59.7855567932129 69.3411102294922 124.709999084473 175.627777099609 160.433334350586 202.617782592773 223.977783203125 258.726654052734 302.667785644531 301.836669921875 320.784454345703 387.965545654297 436.655548095703 472.668884277344 435.906677246094 267.742218017578 195.564437866211 172.937774658203 165.39111328125 161.277770996094 153.013336181641 139.017776489258 137.501113891602 130.015548706055 118.607780456543 109.665557861328 102.834442138672 91.870002746582 89.2588882446289 103.434448242188 166.174438476562 250.445556640625 450.515563964844 740.296691894531 1210.87780761719 1633.32775878906 1427.08666992188 1803.07885742188 2026.51220703125 2225.548828125 2838.55322265625 2704.26342773438 2369.14111328125 2307.5966796875 1867.82885742188 2513.8701171875 2396.17895507812 1155.27893066406 1454.23559570312 809.675537109375 138.729995727539 98.8522186279297 151.213333129883 524.64111328125 794.062194824219 1580.55334472656 1393.56884765625 807.04443359375 2052.84765625 2710.2333984375 2865.3466796875 3001.1455078125 2933.984375 2795.91455078125 2688.56225585938 2334.62548828125 2246.38989257812 2112.53784179688
-3.4e+38 -3.4e+38 -3.4e+38 -3.4e+38 -3.4e+38 -3.4e+38 -3.4e+38 -3.4e+38 -3.4e+38 -3.4e+38 -3.4e+38 -3.4e+38 -3.4e+38 -3.4e+38 -3.4e+38 -3.4e+38 -3.4e+38 -3.4e+38 -3.4e+38 -3.4e+38 -3.4e+38 -3.4e+38 -3.4e+38 -3.4e+38 -3.4e+38 -3.4e+38 -3.4e+38 -3.4e+38 -3.4e+38 -3.4e+38 -3.4e+38 -3.4e+38 -3.4e+38 -3.4e+38 108.409042358398 142.537780761719 212.767776489258 213.432220458984 217.591110229492 285.563323974609 370.293334960938 505.244445800781 449.899993896484 425.578887939453 411.2822265625 380.23779296875 388.771118164062 359.757781982422 376.5966796875 390.745544433594 436.526672363281 462.200012207031 473.368896484375 479.435546875 429.253326416016 368.335540771484 316.822235107422 310.117767333984 290.633331298828 249.388885498047 189.982223510742 232.614440917969 249.203338623047 227.137771606445 212.223327636719 236.425552368164 274.105560302734 289.347778320312 362.777770996094 441.406677246094 550.33447265625 661.651123046875 776.482238769531 541.835571289062 590.528869628906 568.340026855469 547.553344726562 544.681091308594 542.831115722656 565.356689453125 585.352233886719 564.131103515625 566.706665039062 570.126647949219 557.382202148438 524.75 506.921112060547 497.071105957031 489.679992675781 467.064453125 468.171112060547 471.802215576172 461.834442138672 500.384429931641 575.775573730469 678.179992675781 578.531127929688 383.871124267578 306.996673583984 261.517791748047 246.477783203125 232.449996948242 208.022216796875 182.356674194336 167.972229003906 172.665557861328 193.25 216.577774047852 253.693328857422 247.845550537109 225.39111328125 220.610000610352 228.236663818359 260.728881835938 252.14778137207 251.86555480957 180.024444580078 146.278884887695 200.00666809082 280.378875732422 274.315551757812 241.660003662109 268.765563964844 235.792221069336 269.222229003906 483.316680908203 355.723327636719 571.235534667969 441.123626708984 -3.4e+38 -3.4e+38 -3.4e+38 -3.4e+38 144.457015991211 327.75 1069.08447265625 1071.46105957031 992.283325195312 1111.70227050781 1116.95446777344 1117.28552246094 1069.79333496094 1113.00561523438 1082.82446289062 1043.73217773438 1019.52221679688 870.443359375 758.859985351562 671.67333984375 586.361083984375 618.590026855469 602.432250976562 543.013305664062 477.957763671875 429.844451904297 383.364440917969 295.101104736328 206.229995727539 109.915557861328 57.1320533752441 17.5 -3.4e+38 -3.4e+38 -3.4e+38 -3.4e+38 -3.4e+38 -3.4e+38 -3.4e+38 275.873901367188 336.801116943359 283.739379882812 160.799163818359 50.796875 -3.4e+38 -3.4e+38 200.166030883789 1118.69445800781 1082.13220214844 867.35888671875 793.057800292969 845.565551757812 1050.07446289062 1189.86779785156 1256.59216308594 1219.15551757812 1070.34777832031 1074.951171875 994.406677246094 887.927795410156 1084.322265625 1149.49780273438 969.797790527344 899.702209472656 895.815551757812 934.142211914062 380.100006103516 40.6411094665527 41.9300003051758 48.8166656494141 56.0499992370605 64.4433364868164 122.661109924316 229.888885498047 257.70556640625 252.104446411133 262.709991455078 295.456665039062 292.242218017578 320.198883056641 347.542236328125 434.668884277344 364.102233886719 354.792236328125 334.008880615234 265.868896484375 251.302215576172 185.482223510742 157.427780151367 147.77555847168 143.892227172852 139.131103515625 127.744445800781 124.231109619141 116.197776794434 105.99666595459 96.6211090087891 86.7322235107422 79.8444442749023 82.3188858032227 79.0911102294922 73.1388854980469 75.9533309936523 89.7644424438477 148.786666870117 359.392211914062 396.895568847656 572.591125488281 513.708862304688 182.528884887695 375.7822265625 743.8388671875 402.965545654297 447.628875732422 401.166656494141 383.206665039062 215.41667175293 94.9888916015625 145.582229614258 106.173332214355 115.266670227051 343.895568847656 979.114440917969 1260.85339355469 649.126647949219 684.928894042969 1202.25109863281 736.80224609375 1856.6044921875 2610.60546875 2839.43115234375 2876.44677734375 2592.50561523438 2462.10107421875 1939.38000488281 1699.85339355469 2085.23999023438 2094.8310546875
-3.4e+38 -3.4e+38 -3.4e+38 -3.4e+38 -3.4e+38 -3.4e+38 -3.4e+38 -3.4e+38 -3.4e+38 -3.4e+38 -3.4e+38 -3.4e+38 -3.4e+38 -3.4e+38 -3.4e+38 -3.4e+38 -3.4e+38 -3.4e+38 -3.4e+38 -3.4e+38 -3.4e+38 -3.4e+38 -3.4e+38 -3.4e+38 -3.4e+38 -3.4e+38 -3.4e+38 -3.4e+38 -3.4e+38 -3.4e+38 -3.4e+38 -3.4e+38 68.9169464111328 92.7001113891602 145.658889770508 226.572219848633 316.611114501953 360.355560302734 340.954437255859 425.761108398438 453.092224121094 462.752227783203 446.516662597656 426.812225341797 416.82666015625 417.574432373047 384.940002441406 378.0322265625 386.293334960938 395.877777099609 433.720001220703 433.115570068359 410.416656494141 411.144439697266 384.845550537109 344.396667480469 303.832214355469 296.501098632812 289.372222900391 255.156661987305 234.271118164062 238.095550537109 182.5322265625 137.591110229492 161.527770996094 236.581115722656 263.224456787109 300.773345947266 455.434448242188 458.556671142578 744.768859863281 727.438903808594 941.260009765625 837.497802734375 722.055541992188 829.662231445312 937.236694335938 793.918884277344 808.522216796875 740.642211914062 675.909973144531 611.201110839844 601.404418945312 603.952209472656 674.845581054688 702.777770996094 616.268859863281 516.726684570312 470.856658935547 462.241119384766 456.361114501953 459.363342285156 452.898895263672 477.555541992188 508.523345947266 558.283325195312 427.893341064453 328.963348388672 271.623321533203 276.89111328125 275.306671142578 254.690002441406 228.14111328125 208.514450073242 207.301116943359 207.925552368164 230.855560302734 283.218902587891 335.296661376953 301.856658935547 282.288879394531 281.119995117188 298.017791748047 304.945556640625 323.209991455078 279.937774658203 255.380004882812 312.827789306641 241.805557250977 272.411102294922 330.158874511719 313.795562744141 302.167785644531 339.052215576172 214.684448242188 219.731109619141 213.630004882812 389.323333740234 476.092224121094 -3.4e+38 -3.4e+38 -3.4e+38 -3.4e+38 -3.4e+38 172.762756347656 705.907775878906 849.114440917969 686.518859863281 1105.56994628906 1101.52221679688 1223.87670898438 1190.04333496094 997.543334960938 984.375549316406 890.07666015625 914.320007324219 884.208862304688 761.954467773438 658.894470214844 625.578918457031 658.715576171875 694.945556640625 638.432250976562 593.69775390625 527.502197265625 464.004455566406 361.025543212891 296.518890380859 193.783340454102 136.545562744141 32.9215698242188 26.2586212158203 -3.4e+38 -3.4e+38 -3.4e+38 -3.4e+38 -3.4e+38 -3.4e+38 -3.4e+38 -3.4e+38 -3.4e+38 -3.4e+38 -3.4e+38 309.693939208984 -3.4e+38 147.258911132812 566.154418945312 664.184448242188 481.965545654297 417.484436035156 507.344451904297 652.578918457031 708.604431152344 631.820007324219 506.771118164062 495.824432373047 557.123352050781 563.664428710938 679.333312988281 743.798889160156 741.741088867188 492.950012207031 442.411102294922 315.505554199219 636.549987792969 436.598876953125 168.130004882812 32.9700012207031 27.7933330535889 36.4255561828613 52.1222229003906 98.2811126708984 194.951110839844 249.471115112305 210.617782592773 198.133331298828 204.360000610352 226.062225341797 282.333343505859 395.995544433594 428.637786865234 342.584442138672 290.336669921875 266.365570068359 272.89111328125 250.174438476562 241.721115112305 208.836669921875 160.676666259766 139.92333984375 128.856674194336 123.263336181641 117.998886108398 113.431114196777 104.531112670898 94.5 86.7566680908203 77.5811080932617 71.303337097168 67.1777801513672 63.189998626709 59.343334197998 55.2822227478027 55.837776184082 60.1788902282715 60.5066680908203 58.0488891601562 65 64.5599975585938 48.3444442749023 38.2033348083496 44.4366683959961 49.8944435119629 44.9677772521973 97.3222198486328 118.261108398438 113.099998474121 395.056671142578 328.269989013672 513.7822265625 1266.34997558594 1475.43664550781 594.815551757812 405.091125488281 309.818878173828 752.067749023438 631.555541992188 1763.69775390625 2564.21997070312 2640.24877929688 2665.7412109375 2232.42114257812 2162.2587890625 2092.93334960938 1747.17114257812 1874.90661621094 2304.4111328125
-3.4e+38 -3.4e+38 -3.4e+38 -3.4e+38 -3.4e+38 -3.4e+38 -3.4e+38 -3.4e+38 -3.4e+38 -3.4e+38 -3.4e+38 -3.4e+38 -3.4e+38 -3.4e+38 -3.4e+38 -3.4e+38 -3.4e+38 -3.4e+38 -3.4e+38 -3.4e+38 -3.4e+38 -3.4e+38 -3.4e+38 -3.4e+38 -3.4e+38 -3.4e+38 -3.4e+38 -3.4e+38 -3.4e+38 -3.4e+38 -3.4e+38 -3.4e+38 113.693336486816 139.235549926758 185.015548706055 274.323333740234 348.390014648438 391.028900146484 441.825561523438 437.828887939453 404.852233886719 378.492218017578 369.916656494141 371.233337402344 381 401.753326416016 416.100006103516 425.093322753906 386.0966796875 365.805541992188 378.709991455078 375.847778320312 354.516662597656 310.832214355469 328.605560302734 317.234436035156 293.886657714844 282.247772216797 271.504455566406 252.064437866211 256.525543212891 276.881103515625 247.41667175293 188.303329467773 226.677780151367 290.462219238281 314.776672363281 432.338897705078 624.583312988281 817.162231445312 1135.80334472656 739.567749023438 933.461120605469 986.432250976562 1108.26672363281 1221.05773925781 1255.89001464844 1223.90661621094 1006.88665771484 895.130004882812 773.158874511719 667.983337402344 645.64111328125 710.375549316406 889.558898925781 715.854431152344 640.723327636719 558.143310546875 498.028900146484 458.875549316406 461.51220703125 509.269989013672 539.080017089844 568.408874511719 523.365539550781 507.063323974609 431.186676025391 389.198883056641 352.727783203125 329.079986572266 307.563323974609 284.558898925781 261.952209472656 252.261108398438 248.179992675781 250.904449462891 280.179992675781 383.622222900391 388.642211914062 337.015563964844 395.058898925781 376.674438476562 377.160003662109 378.317779541016 371.035552978516 349.888885498047 278.435546875 197.985549926758 249.587783813477 376.396667480469 481.478881835938 312.213348388672 250.137771606445 387.233337402344 344.202209472656 296.357788085938 194.555557250977 241.546661376953 478.278900146484 380.460327148438 -3.4e+38 -3.4e+38 -3.4e+38 -3.4e+38 41.5767936706543 198.792129516602 556.325561523438 430.884429931641 619.433349609375 788.037780761719 1239.02221679688 1256.52001953125 1057.78002929688 977.432250976562 883.618896484375 803.517761230469 772.322204589844 721.700012207031 717.254455566406 690.175537109375 693.406677246094 754.27001953125 678.011108398438 621.431091308594 620.745544433594 523.732238769531 432.9677734375 356.345550537109 259.128875732422 223.632217407227 81.5811614990234 -3.4e+38 -3.4e+38 25.7660675048828 -3.4e+38 -3.4e+38 -3.4e+38 -3.4e+38 -3.4e+38 -3.4e+38 -3.4e+38 -3.4e+38 -3.4e+38 527.236389160156 -3.4e+38 -3.4e+38 158.168182373047 108.953956604004 120.03524017334 98.0290908813477 181.958892822266 194.744445800781 155.86555480957 79.7644424438477 133.289993286133 135.116668701172 103.77555847168 230.960006713867 395.04443359375 442.342987060547 385.51220703125 268.676666259766 263.553344726562 150.363250732422 205.781173706055 345.683319091797 284.374450683594 61.978889465332 21.7488880157471 15.4988889694214 31.5200004577637 81.6777801513672 176.197784423828 209.343338012695 134.834442138672 145.226669311523 162.064437866211 214.164443969727 352.001098632812 511.434448242188 397.636657714844 339.48779296875 293.127777099609 254.642227172852 262.468902587891 362.977783203125 364.123321533203 230.53889465332 184.688888549805 158.036666870117 136.33332824707 117.154441833496 113.00666809082 107.116668701172 99.7733306884766 91.663330078125 83.336669921875 76.0188903808594 67.9711074829102 61.2355537414551 56.5 52.6255569458008 48.4866676330566 43.2900009155273 42.3655548095703 41.0433349609375 36.9500007629395 39.3233337402344 40.3611106872559 33.5666656494141 28.5444450378418 245.996673583984 335.95556640625 721.292236328125 924.067749023438 878.440002441406 336.775543212891 232.597778320312 540.924438476562 1258.3388671875 1362.57336425781 1161.46228027344 263.212219238281 627.564453125 483.945556640625 715.58447265625 577.178894042969 1983.31225585938 2186.18212890625 2333.63549804688 2321.3232421875 2294.01123046875 2074.78344726562 2138.04565429688 1618.14440917969 2149.169921875 2211.98217773438
-3.4e+38 -3.4e+38 -3.4e+38 -3.4e+38 -3.4e+38 -3.4e+38 -3.4e+38 -3.4e+38 -3.4e+38 -3.4e+38 -3.4e+38 -3.4e+38 -3.4e+38 -3.4e+38 -3.4e+38 -3.4e+38 -3.4e+38 -3.4e+38 -3.4e+38 -3.4e+38 -3.4e+38 -3.4e+38 -3.4e+38 -3.4e+38 -3.4e+38 -3.4e+38 -3.4e+38 -3.4e+38 -3.4e+38 -3.4e+38 -3.4e+38 113.281036376953 130.543334960938 212.922225952148 197.589996337891 300.579986572266 411.308898925781 373.887786865234 353.730010986328 331.579986572266 324.927764892578 309.836669921875 320.572235107422 357.323333740234 385.561096191406 364.958892822266 354.322235107422 365.047790527344 368.188903808594 363.571105957031 301.807769775391 281.824432373047 285.779998779297 250.292221069336 241.331115722656 276.959991455078 284.247772216797 268.368896484375 258.133331298828 264.85888671875 280.935546875 298.950012207031 297.531097412109 275.562225341797 268.126678466797 280.053344726562 387.742218017578 481.756652832031 681.118896484375 1011.90002441406 918.453308105469 870.793334960938 997.2744140625 1082.65551757812 1093.60217285156 1304.58666992188 1415.572265625 1498.61999511719 1399.67004394531 1295.89892578125 981.818908691406 755.168884277344 783.289978027344 746.275573730469 880.146667480469 758.768859863281 689.797790527344 627.531127929688 571.103332519531 514.332214355469 491.041107177734 565.530029296875 607.52001953125 537.798889160156 452.133331298828 440.561096191406 396.444458007812 381.618896484375 383.017791748047 380.744445800781 355.007781982422 334.406677246094 315.341125488281 295.708892822266 290.577789306641 296.862213134766 339.26220703125 426.338897705078 430.825561523438 363.806671142578 434.161102294922 504.079986572266 454.585540771484 477.055541992188 493.614440917969 439.542236328125 385.888885498047 297.515563964844 283.377777099609 232.126663208008 317.592224121094 192.603332519531 169.985549926758 422.013336181641 452.4033203125 393.022216796875 197.387771606445 263.482208251953 412.345550537109 536.417785644531 239.252365112305 -3.4e+38 -3.4e+38 -3.4e+38 -3.4e+38 178.238006591797 704.619995117188 627.652221679688 578.784423828125 873.566650390625 1112.44226074219 1113.55554199219 1073.798828125 1020.42333984375 892.886657714844 817.232238769531 846.962219238281 849.212219238281 836.662231445312 763.808898925781 749.785583496094 735.155578613281 718.29443359375 700.028869628906 656.454467773438 586.726684570312 488.886657714844 401.312225341797 337.021118164062 263.215545654297 151.727783203125 108.265716552734 34.4498634338379 36.7514114379883 -3.4e+38 -3.4e+38 -3.4e+38 -3.4e+38 -3.4e+38 -3.4e+38 -3.4e+38 -3.4e+38 107.987602233887 356.073547363281 -3.4e+38 -3.4e+38 -3.4e+38 -3.4e+38 -3.4e+38 -3.4e+38 -3.4e+38 -3.4e+38 -3.4e+38 38.2355461120605 21.6127319335938 52.3558044433594 79.0644378662109 39.5260429382324 -3.4e+38 -3.4e+38 -3.4e+38 -3.4e+38 -3.4e+38 -3.4e+38 101.346572875977 198.394439697266 184.568893432617 39.4077758789062 17.1900005340576 11.3955554962158 27.1266670227051 87.9977798461914 144.648895263672 114.742225646973 63.7488899230957 131.037780761719 207.085556030273 321.093322753906 610.892211914062 497.704437255859 406.772216796875 411.125549316406 301.035552978516 245.773330688477 298.926666259766 406.555541992188 431.875549316406 320.424438476562 263.260009765625 208.453338623047 204.185562133789 148.888885498047 159.28889465332 134.843338012695 101.624443054199 99.4677810668945 89.0699996948242 79.5933303833008 75.9966659545898 83.7033309936523 72.0100021362305 61.4433326721191 49.8622207641602 78.1522216796875 46.6277770996094 45.4466667175293 53.5444450378418 29.2533340454102 27.2533340454102 24.1233329772949 27.1966667175293 136.618896484375 217.948883056641 523.982238769531 737.817749023438 708.735534667969 764.954467773438 643.123352050781 1244.67333984375 1413.69226074219 1365.68334960938 267.059997558594 260.071105957031 353.477783203125 333.977783203125 178.94221496582 971.849975585938 1964.97778320312 1782.28112792969 2017.72998046875 1922.92333984375 2069.306640625 2015.66552734375 2103.70434570312 1953.83776855469 2010.25219726562 2113.41674804688
-3.4e+38 -3.4e+38 -3.4e+38 -3.4e+38 -3.4e+38 -3.4e+38 -3.4e+38 -3.4e+38 -3.4e+38 -3.4e+38 -3.4e+38 -3.4e+38 -3.4e+38 -3.4e+38 -3.4e+38 -3.4e+38 -3.4e+38 -3.4e+38 -3.4e+38 -3.4e+38 -3.4e+38 -3.4e+38 -3.4e+38 -3.4e+38 -3.4e+38 -3.4e+38 -3.4e+38 -3.4e+38 -3.4e+38 -3.4e+38 -3.4e+38 122.379592895508 178.762222290039 264.758880615234 232.774444580078 252.353332519531 288.101104736328 269.011108398438 276.64111328125 280.617767333984 282.344451904297 288.415557861328 293.726654052734 309.347778320312 366.626678466797 395.933319091797 360.687774658203 333.151123046875 337.943328857422 289.170013427734 238.847778320312 230.16667175293 247.406661987305 263.224456787109 286.362213134766 289.459991455078 276.696655273438 261.694458007812 265.068878173828 280.498901367188 298.126678466797 311.298889160156 324.920013427734 375.801116943359 424.376678466797 372.07666015625 499.859985351562 565.376647949219 663.236694335938 824.687805175781 912.702209472656 1122.62109375 1053.24780273438 1088.1455078125 1065.56774902344 1199.16442871094 1222.46337890625 1174.19995117188 1109.21887207031 1289.81115722656 1375.09887695312 937.506652832031 843.221130371094 767.097778320312 907.606689453125 810.830017089844 740.935546875 656.719970703125 596.824462890625 535.908874511719 514.795532226562 615.288879394531 547.643310546875 516.007751464844 456.811096191406 440.174438476562 437.32666015625 418.073333740234 411.996673583984 433.843322753906 434.817779541016 424.054443359375 394.9677734375 344.678894042969 326.221099853516 353.133331298828 381.687774658203 429.764434814453 409.243347167969 394.042236328125 475.135559082031 600.973327636719 555.074462890625 587.428894042969 613.312194824219 518.743347167969 432.385559082031 371.355560302734 369.474456787109 338.437774658203 288.277770996094 161.772216796875 168.274444580078 390.925567626953 470.67333984375 445.435546875 141.656661987305 203.874450683594 325.191101074219 478.778900146484 417.110229492188 -3.4e+38 -3.4e+38 -3.4e+38 -3.4e+38 141.067565917969 637.138916015625 733.114440917969 867.778869628906 686.837768554688 898.200012207031 882.435546875 899.495544433594 1017.03668212891 951.808898925781 876.243347167969 972.125549316406 992.62890625 910.602233886719 865.671081542969 816.1533203125 756.320007324219 708.764465332031 775.207763671875 637.22998046875 592.192199707031 539.60888671875 436.185546875 345.073333740234 262.838897705078 189.812225341797 153.383331298828 50.9444427490234 37.6423835754395 -3.4e+38 -3.4e+38 -3.4e+38 -3.4e+38 -3.4e+38 -3.4e+38 34.9388389587402 91.3382720947266 271.178894042969 393.186401367188 -3.4e+38 -3.4e+38 -3.4e+38 -3.4e+38 -3.4e+38 -3.4e+38 -3.4e+38 -3.4e+38 -3.4e+38 -3.4e+38 -3.4e+38 -3.4e+38 -3.4e+38 -3.4e+38 -3.4e+38 -3.4e+38 -3.4e+38 -3.4e+38 -3.4e+38 -3.4e+38 -3.4e+38 52.136905670166 51.41650390625 11.3588905334473 11.2786598205566 17.7161865234375 48.0655555725098 74.1866683959961 64.7088851928711 27.5588893890381 57.9966659545898 220.497772216797 369.037780761719 591.963317871094 635.27001953125 463.187774658203 468.51220703125 455.973327636719 393.393341064453 300.214447021484 332.895568847656 447.062225341797 471.175567626953 377.688903808594 343.303344726562 302.843322753906 297.138885498047 320.515563964844 341.350006103516 288.431121826172 294.634429931641 243.91667175293 260.972229003906 310.285552978516 284.377777099609 130.705551147461 126.169998168945 134.491104125977 187.088882446289 194.653335571289 172.35221862793 157.058883666992 69.7188873291016 27.2622222900391 18.2700004577637 17.067777633667 16.4544448852539 16.3688888549805 10.9588890075684 7.22555541992188 14.4977779388428 24.6499996185303 43.3955574035645 355.515563964844 904.712219238281 958.144470214844 382.42333984375 218.813339233398 406.258880615234 444.60888671875 301.362213134766 232.111114501953 1332.36328125 1498.46557617188 1670.37329101562 1655.86779785156 1866.56115722656 1790.99890136719 1953.92663574219 1811.9599609375 1770.9755859375 1950.14660644531 1996.69885253906
-3.4e+38 -3.4e+38 -3.4e+38 -3.4e+38 -3.4e+38 -3.4e+38 -3.4e+38 -3.4e+38 -3.4e+38 -3.4e+38 -3.4e+38 -3.4e+38 -3.4e+38 -3.4e+38 -3.4e+38 -3.4e+38 -3.4e+38 -3.4e+38 -3.4e+38 -3.4e+38 -3.4e+38 -3.4e+38 -3.4e+38 -3.4e+38 -3.4e+38 -3.4e+38 -3.4e+38 -3.4e+38 -3.4e+38 -3.4e+38 71.1078720092773 164.470001220703 252.551116943359 305.735565185547 326.350006103516 215.398895263672 227.306671142578 217.412216186523 226.446670532227 241.413330078125 247.74333190918 254.428894042969 260.773345947266 280.002227783203 340.609985351562 362.571105957031 358.723327636719 332.920013427734 305.619995117188 283.366668701172 284.127777099609 307.291107177734 298.742218017578 304.296661376953 294.447784423828 273.730010986328 257.541107177734 274.215545654297 278.947784423828 292.945556640625 306.082214355469 321.181121826172 338.200012207031 363.685546875 399.362213134766 438.388885498047 532.997802734375 669.842224121094 665.224426269531 735.163330078125 926.091125488281 1200.39782714844 1244.39440917969 1187.87561035156 1213.52001953125 1279.12780761719 1109.88781738281 1017.66552734375 945.940002441406 967.687805175781 1213.83666992188 1153.79333496094 952.417785644531 798.030029296875 999.741088867188 842.498901367188 740.646667480469 661.840026855469 587.495544433594 530.809997558594 527.907775878906 549.983337402344 618.969970703125 586.772216796875 516.906677246094 485.748901367188 462.462219238281 449.375549316406 455.14111328125 528.934448242188 552.636657714844 517.781127929688 449.142211914062 395.852233886719 400.471099853516 439.575561523438 470.79443359375 397.588897705078 394.978881835938 439.077789306641 471.158874511719 750.283325195312 700.375549316406 721.504455566406 699.406677246094 579.0966796875 429.051116943359 361.471099853516 315.355560302734 361.093322753906 300.773345947266 188.30778503418 180.026672363281 343.612213134766 428.0966796875 388.835540771484 173.114440917969 221.093338012695 286.158874511719 386.493347167969 600.356689453125 316.203277587891 -3.4e+38 -3.4e+38 -3.4e+38 -3.4e+38 89.2693176269531 158.756072998047 562.5244140625 883.005554199219 825.62890625 791.127807617188 848.174438476562 925.357788085938 962.351135253906 934.377807617188 971.645568847656 1028.40222167969 927.602233886719 986.234436035156 941.260009765625 778.260009765625 698.252197265625 763.382202148438 664.754455566406 472.336669921875 451.875549316406 408.317779541016 324.556671142578 269.178894042969 211.413330078125 166.60888671875 92.2200012207031 39.7799682617188 33.3220329284668 -3.4e+38 -3.4e+38 -3.4e+38 -3.4e+38 25.9020977020264 60.5846939086914 146.712219238281 306.266662597656 643.556640625 121.98021697998 -3.4e+38 -3.4e+38 -3.4e+38 -3.4e+38 -3.4e+38 -3.4e+38 -3.4e+38 -3.4e+38 -3.4e+38 -3.4e+38 -3.4e+38 -3.4e+38 -3.4e+38 -3.4e+38 -3.4e+38 -3.4e+38 -3.4e+38 -3.4e+38 -3.4e+38 -3.4e+38 -3.4e+38 9 9 -3.4e+38 18.8245620727539 13.539999961853 9.10888862609863 13.8477773666382 9.06777763366699 65.1711120605469 163.081115722656 313.109985351562 444.026672363281 435.288879394531 368.691101074219 462.519989013672 430.301116943359 412.293334960938 368.255554199219 385.747772216797 465.266662597656 468.887786865234 413.611114501953 438.7822265625 422.316680908203 369.097778320312 382.868896484375 410.976654052734 353.515563964844 350.820007324219 363.338897705078 319.114440917969 279.838897705078 239.661117553711 268.514434814453 332.404449462891 434.059997558594 384.179992675781 312.573333740234 231.139999389648 167.764450073242 58.5066680908203 22.3944435119629 17.3788890838623 13.1977777481079 11.9188890457153 15.3088884353638 10.777777671814 13.0299997329712 46.6977767944336 97.7322235107422 260.463348388672 674.095581054688 1015.06109619141 597.476684570312 228.444442749023 339.497772216797 427.665557861328 215.026672363281 177.977783203125 312.147766113281 1243.24560546875 1247.08557128906 1577.75109863281 1384.28332519531 1729.03332519531 1765.92004394531 1700.61779785156 1742.11450195312 1458.59887695312 1771.26892089844 1880.50329589844
-3.4e+38 -3.4e+38 -3.4e+38 -3.4e+38 -3.4e+38 -3.4e+38 -3.4e+38 -3.4e+38 -3.4e+38 -3.4e+38 -3.4e+38 -3.4e+38 -3.4e+38 -3.4e+38 -3.4e+38 -3.4e+38 -3.4e+38 -3.4e+38 -3.4e+38 -3.4e+38 -3.4e+38 -3.4e+38 -3.4e+38 -3.4e+38 -3.4e+38 -3.4e+38 -3.4e+38 -3.4e+38 -3.4e+38 64.7412185668945 156.273330688477 256.45556640625 282.042236328125 344.568878173828 307.732208251953 251.25666809082 273.678894042969 263.899993896484 233.242218017578 232.422225952148 243.559997558594 234.887771606445 241.458892822266 256.898895263672 320.008880615234 329.190002441406 311.857788085938 313.109985351562 306.174438476562 321.711120605469 317.314453125 317.820007324219 316.244445800781 310.522216796875 302.484436035156 262.975555419922 204.825561523438 293.207763671875 295.195556640625 305.305541992188 315.952209472656 330.308898925781 345.234436035156 369.393341064453 400.735565185547 441.352233886719 504.344451904297 535.440002441406 607.228881835938 731.648864746094 897.437805175781 1095.55554199219 1460.4599609375 1658.41223144531 1531.32885742188 1300.548828125 1248.16442871094 1084.91442871094 906.581115722656 864.083312988281 853.303344726562 959.67333984375 1028.14331054688 894.388916015625 911.373352050781 873.991088867188 745.1611328125 658.684448242188 594.654418945312 567.998901367188 574.937805175781 607.775573730469 654.742248535156 620.386657714844 572.268859863281 521.806640625 506.418884277344 489.138885498047 524.884460449219 659.624450683594 739.246643066406 598.094421386719 481.612213134766 481.401123046875 567.397766113281 503.537780761719 442.339996337891 432.866668701172 454.304443359375 485.928894042969 478.712219238281 783.111083984375 901.634460449219 929.695556640625 657.549987792969 534.228881835938 404.776672363281 338.395568847656 305.751098632812 298.412231445312 249.396667480469 168.133331298828 202.838882446289 307.425567626953 381.356658935547 354.805541992188 189.806671142578 309.553344726562 368.573333740234 367.458892822266 459.786651611328 415.948608398438 -3.4e+38 -3.4e+38 -3.4e+38 -3.4e+38 -3.4e+38 -3.4e+38 168.507446289062 788.266662597656 1016.14556884766 996.116638183594 940.320007324219 964.335571289062 958.89111328125 977.969970703125 1004.15222167969 988.114440917969 951.581115722656 960.537780761719 974.652221679688 870.849975585938 678.674438476562 852.314453125 741.508911132812 521.741088867188 499.627777099609 388.741119384766 302.351104736328 238.667770385742 205.119995117188 166.435562133789 116.526664733887 60.1577758789062 31.3364124298096 34.1925621032715 78.0633316040039 96.3177795410156 89.7122802734375 88.0939559936523 101.849998474121 138.853332519531 227.818893432617 619.679992675781 636.755554199219 218.391662597656 75.9732360839844 -3.4e+38 -3.4e+38 -3.4e+38 -3.4e+38 -3.4e+38 -3.4e+38 -3.4e+38 -3.4e+38 -3.4e+38 -3.4e+38 -3.4e+38 -3.4e+38 -3.4e+38 -3.4e+38 -3.4e+38 -3.4e+38 -3.4e+38 -3.4e+38 -3.4e+38 -3.4e+38 -3.4e+38 63.9116363525391 50.722541809082 17.3155555725098 8.6966667175293 25.9544448852539 9.94999980926514 34.1977767944336 88.3311080932617 154.154449462891 242.968887329102 262.218902587891 193.17333984375 416.366668701172 466.784454345703 463.726654052734 430.064453125 434.028900146484 469.163330078125 435.551116943359 471.005554199219 511.006652832031 389.837768554688 396.494445800781 429.815551757812 413.410003662109 422.522216796875 493.988891601562 606.062194824219 477.965545654297 500.805541992188 487.451110839844 459.415557861328 545.7177734375 512.817749023438 385.342224121094 243.509994506836 159.649993896484 98.3088912963867 40.4300003051758 16.8288879394531 15.0944442749023 11.4677782058716 8.62666702270508 8.05222225189209 7.11222219467163 26.6311111450195 117.806663513184 270.938903808594 601.613342285156 1046.86560058594 1312.75671386719 366.402221679688 315.144439697266 280.111114501953 272.850006103516 158.61555480957 234.639999389648 679.436645507812 1183.7744140625 1275.9111328125 1282.72338867188 1477.7099609375 1708.04553222656 1605 1602.76440429688 1513.60998535156 1415.0966796875 1519.20446777344 1633.2099609375
