ncols        163
nrows        31
xllcorner    -84
yllcorner    -38
cellsize     0.500000000000
NODATA_value  nan
13.892443656921386719 13.647343635559082031 13.416407585144042969 13.20037841796875 13 12.816005706787109375 12.649110794067382812 12.298374176025390625 11.853269577026367188 11.41271209716796875 10.9772491455078125 10.547511100769042969 10.124228477478027344 9.70824432373046875 9.3005380630493164062 8.9022464752197265625 8.5146932601928710938 8.1394100189208984375 7.7781744003295898438 7.4330344200134277344 7.1063351631164550781 6.8007354736328125 6.5192022323608398438 6.2649822235107421875 6.041522979736328125 5.7008771896362304688 5.2201533317565917969 4.7434163093566894531 4.2720017433166503906 3.8078866004943847656 3.3541018962860107422 2.9154758453369140625 2.5 2.1213202476501464844 1.8027756214141845703 1.5811388492584228516 1.5 1.5811388492584228516 1.8027756214141845703 2.1213202476501464844 2.5 2.5495097637176513672 2.6925823688507080078 2.9154758453369140625 3.2015621662139892578 3.535533905029296875 3.9051249027252197266 4.1231055259704589844 3.6400549411773681641 3.1622776985168457031 2.6925823688507080078 2.2360680103302001953 1.8027756214141845703 1.4142135381698608398 1.1180340051651000977 1 1 0.70710676908493041992 0.5 0.5 0 0 0 0 0 0 0 0 0 0 0 0 0 0 0.5 0.5 0 0 0 0 0 0.5 0.5 0.70710676908493041992 1 1 1.1180340051651000977 1.4142135381698608398 1.8027756214141845703 2.2360680103302001953 2.6925823688507080078 3.1622776985168457031 3.6400549411773681641 4.1231055259704589844 4.6097722053527832031 5.0990195274353027344 5.5901699066162109375 6.0827627182006835938 6.576473236083984375 7.07106781005859375 7.5663728713989257812 8.0622577667236328125 8.5586214065551757812 9.055385589599609375 9.552486419677734375 10.049875259399414062 10.547511100769042969 11.045360565185546875 11.54339599609375 12.041594505310058594 12.539936065673828125 13.038404464721679688 13.536986351013183594 14.035668373107910156 14.534441947937011719 15.033296585083007812 15.532224655151367188 16.031219482421875 16.530275344848632812 17.029386520385742188 17.528547286987304688 18.0277557373046875 18.527008056640625 19.02629852294921875 19.525623321533203125 20.024984359741210938 20.52437591552734375 21.02379608154296875 21.523242950439453125 22.022714614868164062 22.522211074829101562 23.021728515625 23.521266937255859375 24.020824432373046875 24.520399093627929688 25.019992828369140625 25.51959991455078125 26.019224166870117188 26.518861770629882812 26.575365066528320312 26.086395263671875 25.597850799560546875 25.109758377075195312 24.622144699096679688 24.135036468505859375 23.648468017578125 23.162469863891601562 22.677080154418945312 22.192340850830078125 21.708293914794921875 21.224985122680664062 20.742467880249023438 20.260799407958984375 19.780040740966796875 19.300258636474609375 18.821529388427734375 18.343936920166015625 17.8675689697265625 17.392526626586914062 16.918924331665039062 16.4468841552734375 15.976545333862304688 15.508062362670898438
14.326548576354980469 14.089002609252929688 13.865424156188964844 13.656499862670898438 13.462911605834960938 13.285329818725585938 12.971121788024902344 12.529964447021484375 12.093386650085449219 11.66190338134765625 11.236102104187011719 10.816654205322265625 10.404326438903808594 10 9.604686737060546875 9.2195444107055664062 8.8459033966064453125 8.4852809906005859375 8.1394100189208984375 7.8102498054504394531 7.5 7.2111024856567382812 6.9462218284606933594 6.576473236083984375 6.0827627182006835938 5.5901699066162109375 5.0990195274353027344 4.6097722053527832031 4.1231055259704589844 3.6400549411773681641 3.1622776985168457031 2.6925823688507080078 2.2360680103302001953 1.8027756214141845703 1.4142135381698608398 1.1180340051651000977 1 1.1180340051651000977 1.4142135381698608398 1.8027756214141845703 2 2.0615527629852294922 2.2360680103302001953 2.5 2.8284270763397216797 3.2015621662139892578 3.6055512428283691406 4.0311288833618164062 3.8078866004943847656 3.3541018962860107422 2.9154758453369140625 2.5 2.1213202476501464844 1.8027756214141845703 1.5811388492584228516 1.5 1.4142135381698608398 1.1180340051651000977 0.70710676908493041992 0.5 0 0.5 0.5 0.5 0.5 0.5 0 0 0 0 0 0 0 0 0 0 0 0 0.5 0.5 0.5 0.70710676908493041992 1 1.1180340051651000977 1.4142135381698608398 1.5 1.5811388492584228516 1.8027756214141845703 2.1213202476501464844 2.5 2.9154758453369140625 3.3541018962860107422 3.8078866004943847656 4.2720017433166503906 4.7434163093566894531 5.2201533317565917969 5.7008771896362304688 6.1846585273742675781 6.6708321571350097656 7.1589107513427734375 7.648529052734375 8.1394100189208984375 8.6313381195068359375 9.1241436004638671875 9.6176919937133789062 10.111874580383300781 10.606601715087890625 11.101801872253417969 11.597413063049316406 12.093386650085449219 12.589678764343261719 13.086252212524414062 13.583077430725097656 14.080127716064453125 14.577380180358886719 15.0748138427734375 15.572411537170410156 16.070158004760742188 16.568040847778320312 17.06604766845703125 17.564168930053710938 18.062391281127929688 18.560710906982421875 19.059118270874023438 19.557607650756835938 20.056171417236328125 20.554803848266601562 21.053503036499023438 21.5522613525390625 22.051076889038085938 22.549943923950195312 23.048860549926757812 23.547822952270507812 24.0468292236328125 24.54587554931640625 25.04496002197265625 25.544078826904296875 26.043233871459960938 26.54241943359375 26.683328628540039062 26.19637298583984375 25.709920883178710938 25.223997116088867188 24.738634109497070312 24.253866195678710938 23.769727706909179688 23.28626251220703125 22.803508758544921875 22.321514129638671875 21.840330123901367188 21.360010147094726562 20.880613327026367188 20.4022064208984375 19.92485809326171875 19.448650360107421875 18.973665237426757812 18.5 18.0277557373046875 17.557050704956054688 17.088006973266601562 16.620769500732421875 16.15549468994140625 15.692355155944824219
14.764822959899902344 14.534441947937011719 14.317821502685546875 14.115593910217285156 13.928388595581054688 13.647343635559082031 13.209844589233398438 12.776932716369628906 12.349088668823242188 11.926860809326171875 11.5108642578125 11.101801872253417969 10.700467109680175781 10.295630455017089844 9.861541748046875 9.4339809417724609375 9.01387786865234375 8.602325439453125 8.2006101608276367188 7.8102498054504394531 7.4330344200134277344 7.07106781005859375 6.7268118858337402344 6.4031243324279785156 6.0207972526550292969 5.5226802825927734375 5.0249376296997070312 4.5276927947998046875 4.0311288833618164062 3.535533905029296875 3.0413813591003417969 2.5495097637176513672 2.0615527629852294922 1.5811388492584228516 1.1180340051651000977 0.70710676908493041992 0.5 0.70710676908493041992 1.1180340051651000977 1.4142135381698608398 1.5 1.5811388492584228516 1.8027756214141845703 2.1213202476501464844 2.5 2.9154758453369140625 3.3541018962860107422 3.8078866004943847656 4.0311288833618164062 3.6055512428283691406 3.2015621662139892578 2.8284270763397216797 2.5 2.2360680103302001953 2.0615527629852294922 2 1.5 1 0.5 0 0 0.5 1 1 1 0.70710676908493041992 0.5 0.5 0.5 0.5 0 0 0.5 0 0 0 0 0.5 0.70710676908493041992 1 1 1.1180340051651000977 1.4142135381698608398 1.5811388492584228516 1.8027756214141845703 2 2.0615527629852294922 2.2360680103302001953 2.5 2.8284270763397216797 3.2015621662139892578 3.6055512428283691406 4.0311288833618164062 4.4721360206604003906 4.9244289398193359375 5.3851647377014160156 5.8523497581481933594 6.3245553970336914062 6.8007354736328125 7.2801098823547363281 7.7620873451232910156 8.2462110519409179688 8.73212432861328125 9.2195444107055664062 9.70824432373046875 10.198039054870605469 10.688778877258300781 11.180339813232421875 11.672617912292480469 12.165525436401367188 12.65898895263671875 13.15294647216796875 13.647343635559082031 14.1421356201171875 14.637281417846679688 15.132745742797851562 15.628499984741210938 16.124515533447265625 16.620769500732421875 17.117242813110351562 17.61391448974609375 18.11077117919921875 18.607793807983398438 19.10497283935546875 19.602294921875 20.099750518798828125 20.597330093383789062 21.095022201538085938 21.592823028564453125 22.09072113037109375 22.588714599609375 23.0867919921875 23.58495330810546875 24.083189010620117188 24.5814971923828125 25.07987213134765625 25.578311920166015625 26.076808929443359375 26.575365066528320312 26.8001861572265625 26.315395355224609375 25.831182479858398438 25.347583770751953125 24.864633560180664062 24.3823699951171875 23.900836944580078125 23.420076370239257812 22.9401397705078125 22.461076736450195312 21.98294830322265625 21.5058135986328125 21.029741287231445312 20.554803848266601562 20.081085205078125 19.608671188354492188 19.137659072875976562 18.668153762817382812 18.200275421142578125 17.734148025512695312 17.269916534423828125 16.807735443115234375 16.347782135009765625 15.890248298645019531
15.206906318664550781 14.983324050903320312 14.773286819458007812 14.577380180358886719 14.230249404907226562 13.756816864013671875 13.285329818725585938 12.816005706787109375 12.349088668823242188 11.884863853454589844 11.423659324645996094 10.965856552124023438 10.511898040771484375 10.062305450439453125 9.6176919937133789062 9.17877960205078125 8.7464275360107421875 8.3216581344604492188 7.9056940078735351562 7.5 7.1063351631164550781 6.7268118858337402344 6.3639612197875976562 6.0207972526550292969 5.7008771896362304688 5.4083271026611328125 5 4.5 4 3.5 3 2.5 2 1.5 1 0.5 0 0.5 0.70710676908493041992 1 1 1.1180340051651000977 1.4142135381698608398 1.8027756214141845703 2.2360680103302001953 2.6925823688507080078 3.1622776985168457031 3.6400549411773681641 4.1231055259704589844 3.9051249027252197266 3.535533905029296875 3.2015621662139892578 2.9154758453369140625 2.6925823688507080078 2.5 2 1.5 1 0.5 0 0.5 0.70710676908493041992 1.1180340051651000977 1.5 1.4142135381698608398 1.1180340051651000977 1 1 1 0.70710676908493041992 0.5 0 0 0.5 0.5 0.5 0.5 0.70710676908493041992 1.1180340051651000977 1.4142135381698608398 1.5 1.5811388492584228516 1.8027756214141845703 2.0615527629852294922 2.2360680103302001953 2.5 2.5495097637176513672 2.6925823688507080078 2.9154758453369140625 3.2015621662139892578 3.535533905029296875 3.9051249027252197266 4.3011627197265625 4.7169904708862304688 5.1478152275085449219 5.5901699066162109375 6.041522979736328125 6.5 6.9641942977905273438 7.4330344200134277344 7.9056940078735351562 8.381526947021484375 8.8600225448608398438 9.340770721435546875 9.8234415054321289062 10.307764053344726562 10.793516159057617188 11.280513763427734375 11.768602371215820312 12.257650375366210938 12.747549057006835938 13.238202095031738281 13.72953033447265625 14.221462249755859375 14.713938713073730469 15.206906318664550781 15.700318336486816406 16.194135665893554688 16.688320159912109375 17.182840347290039062 17.677669525146484375 18.172780990600585938 18.668153762817382812 19.163768768310546875 19.659603118896484375 20.155643463134765625 20.651876449584960938 21.148286819458007812 21.644861221313476562 22.141590118408203125 22.638462066650390625 23.135471343994140625 23.632604598999023438 24.129856109619140625 24.62722015380859375 25.124689102172851562 25.622255325317382812 26.119915008544921875 26.617662429809570312 26.925823211669921875 26.44333648681640625 25.96150970458984375 25.48038482666015625 25 24.520399093627929688 24.041629791259765625 23.56374359130859375 23.0867919921875 22.610837936401367188 22.135944366455078125 21.662179946899414062 21.1896209716796875 20.718349456787109375 20.248456954956054688 19.780040740966796875 19.313207626342773438 18.848077774047851562 18.384777069091796875 17.923448562622070312 17.4642486572265625 17.007350921630859375 16.552946090698242188 16.1012420654296875
15.652476310729980469 15.435349464416503906 15.041608810424804688 14.560219764709472656 14.080127716064453125 13.601470947265625 13.1244049072265625 12.649110794067382812 12.175795555114746094 11.704699516296386719 11.236102104187011719 10.770329475402832031 10.307764053344726562 9.848857879638671875 9.3941469192504882812 8.9442720413208007812 8.5 8.0622577667236328125 7.6321687698364257812 7.2111024856567382812 6.8007354736328125 6.4031243324279785156 6.0207972526550292969 5.6568541526794433594 5.3150730133056640625 5 4.7169904708862304688 4.4721360206604003906 4 3.5 3 2.5 2 1.5 1 0.5 0 0 0.5 0.5 0.5 0.70710676908493041992 1.1180340051651000977 1.5811388492584228516 2.0615527629852294922 2.5495097637176513672 3.0413813591003417969 3.535533905029296875 4.0311288833618164062 4.2426404953002929688 3.9051249027252197266 3.6055512428283691406 3.3541018962860107422 3.0413813591003417969 2.5495097637176513672 2.0615527629852294922 1.5811388492584228516 1.1180340051651000977 0.70710676908493041992 0.5 0.70710676908493041992 1.1180340051651000977 1.4142135381698608398 1.8027756214141845703 1.8027756214141845703 1.5811388492584228516 1.5 1.5 1.4142135381698608398 1.1180340051651000977 0.70710676908493041992 0.5 0.5 0.70710676908493041992 1 1 1 1.1180340051651000977 1.4142135381698608398 1.8027756214141845703 2 2.0615527629852294922 2.2360680103302001953 2.5 2.6925823688507080078 2.9154758453369140625 3.0413813591003417969 3.1622776985168457031 3.3541018962860107422 3.6055512428283691406 3.9051249027252197266 4.2426404953002929688 4.6097722053527832031 5 5.4083271026611328125 5.830951690673828125 6.2649822235107421875 6.7082037925720214844 7.1589107513427734375 7.6157732009887695312 8.077747344970703125 8.5440034866333007812 9.01387786865234375 9.4868326187133789062 9.962429046630859375 10.440306663513183594 10.920165061950683594 11.401754379272460938 11.884863853454589844 12.369317054748535156 12.854960441589355469 13.341664314270019531 13.829317092895507812 14.317821502685546875 14.807092666625976562 15.29705810546875 15.787652969360351562 16.278820037841796875 16.770509719848632812 17.262676239013671875 17.755281448364257812 18.248287200927734375 18.741664886474609375 19.235383987426757812 19.729419708251953125 20.223749160766601562 20.718349456787109375 21.21320343017578125 21.708293914794921875 22.203603744506835938 22.69911956787109375 23.194826126098632812 23.690715789794921875 24.186773300170898438 24.68299102783203125 25.179357528686523438 25.675863265991210938 26.172504425048828125 26.669271469116210938 27.060117721557617188 26.580068588256835938 26.100767135620117188 25.622255325317382812 25.144582748413085938 24.66779327392578125 24.1919403076171875 23.717082977294921875 23.24327850341796875 22.770595550537109375 22.299102783203125 21.82888031005859375 21.360010147094726562 20.892581939697265625 20.426698684692382812 19.962465286254882812 19.5 19.039432525634765625 18.580904006958007812 18.124568939208984375 17.670597076416015625 17.219175338745117188 16.770509719848632812 16.324827194213867188
15.890248298645019531 15.402921676635742188 14.916434288024902344 14.43087005615234375 13.946325302124023438 13.462911605834960938 12.980754852294921875 12.5 12.020814895629882812 11.54339599609375 11.067972183227539062 10.59481048583984375 10.124228477478027344 9.6566038131713867188 9.1923885345458984375 8.73212432861328125 8.2764730453491210938 7.8262381553649902344 7.3824114799499511719 6.9462218284606933594 6.5192022323608398438 6.1032776832580566406 5.7008771896362304688 5.3150730133056640625 4.9497475624084472656 4.6097722053527832031 4.3011627197265625 4.0311288833618164062 3.8078866004943847656 3.5 3 2.5 2 1.5 1 0.5 0 0 0 0 0 0.5 1 1.5 2 2.5 3 3.5 4 4.4721360206604003906 4.2426404953002929688 3.9051249027252197266 3.535533905029296875 3.1622776985168457031 2.6925823688507080078 2.2360680103302001953 1.8027756214141845703 1.4142135381698608398 1.1180340051651000977 1 1.1180340051651000977 1.4142135381698608398 1.5 1.5811388492584228516 1.8027756214141845703 2 2 2 1.8027756214141845703 1.4142135381698608398 1.1180340051651000977 1 1 1.1180340051651000977 1.4142135381698608398 1.5 1.5 1.5811388492584228516 1.8027756214141845703 2.1213202476501464844 2.5 2.5495097637176513672 2.6925823688507080078 2.9154758453369140625 3.1622776985168457031 3.3541018962860107422 3.535533905029296875 3.6400549411773681641 3.8078866004943847656 4.0311288833618164062 4.3011627197265625 4.6097722053527832031 4.9497475624084472656 5.3150730133056640625 5.7008771896362304688 6.1032776832580566406 6.5192022323608398438 6.9462218284606933594 7.3824114799499511719 7.8262381553649902344 8.2764730453491210938 8.73212432861328125 9.1923885345458984375 9.6566038131713867188 10.124228477478027344 10.59481048583984375 11.067972183227539062 11.54339599609375 12.020814895629882812 12.5 12.980754852294921875 13.462911605834960938 13.946325302124023438 14.43087005615234375 14.916434288024902344 15.402921676635742188 15.890248298645019531 16.378339767456054688 16.867128372192382812 17.356554031372070312 17.846569061279296875 18.33712005615234375 18.8281707763671875 19.31967926025390625 19.811613082885742188 20.3039398193359375 20.796634674072265625 21.289669036865234375 21.78302001953125 22.276668548583984375 22.770595550537109375 23.264780044555664062 23.75920867919921875 24.253866195678710938 24.748737335205078125 25.243810653686523438 25.73907470703125 26.23451995849609375 26.730133056640625 27.20294189453125 26.72545623779296875 26.248809814453125 25.77304840087890625 25.298221588134765625 24.824382781982421875 24.351591110229492188 23.879907608032226562 23.409399032592773438 22.9401397705078125 22.472204208374023438 22.005681991577148438 21.540658950805664062 21.077238082885742188 20.615528106689453125 20.155643463134765625 19.69771575927734375 19.24188232421875 18.788293838500976562 18.33712005615234375 17.888544082641601562 17.4427642822265625 17 16.560495376586914062
15.787652969360351562 15.29705810546875 14.807092666625976562 14.317821502685546875 13.829317092895507812 13.341664314270019531 12.854960441589355469 12.369317054748535156 11.884863853454589844 11.401754379272460938 10.920165061950683594 10.440306663513183594 9.962429046630859375 9.4868326187133789062 9.01387786865234375 8.5440034866333007812 8.077747344970703125 7.6157732009887695312 7.1589107513427734375 6.7082037925720214844 6.2649822235107421875 5.830951690673828125 5.4083271026611328125 5 4.6097722053527832031 4.2426404953002929688 3.9051249027252197266 3.6055512428283691406 3.3541018962860107422 3.1622776985168457031 3.0413813591003417969 2.5495097637176513672 2.0615527629852294922 1.5811388492584228516 1.1180340051651000977 0.70710676908493041992 0.5 0.5 0.5 0 0 0.5 1 1.5 2 2.5 2.9154758453369140625 3.3541018962860107422 3.8078866004943847656 4.0311288833618164062 3.9051249027252197266 3.535533905029296875 3.2015621662139892578 2.8284270763397216797 2.5 2.1213202476501464844 1.8027756214141845703 1.5811388492584228516 1.5 1.4142135381698608398 1.1180340051651000977 1 1 1.1180340051651000977 1.4142135381698608398 1.5 1.5811388492584228516 1.8027756214141845703 2.1213202476501464844 1.8027756214141845703 1.5811388492584228516 1.5 1.5 1.5811388492584228516 1.8027756214141845703 2 2 2.0615527629852294922 2.2360680103302001953 2.5 2.8284270763397216797 3.0413813591003417969 3.1622776985168457031 3.3541018962860107422 3.6055512428283691406 3.8078866004943847656 4.0311288833618164062 4.1231055259704589844 4.2720017433166503906 4.4721360206604003906 4.7169904708862304688 5 5.3150730133056640625 5.6568541526794433594 6.0207972526550292969 6.4031243324279785156 6.8007354736328125 7.2111024856567382812 7.6321687698364257812 8.0622577667236328125 8.5 8.9442720413208007812 9.3941469192504882812 9.848857879638671875 10.307764053344726562 10.770329475402832031 11.236102104187011719 11.704699516296386719 12.175795555114746094 12.649110794067382812 13.1244049072265625 13.601470947265625 14.080127716064453125 14.560219764709472656 15.041608810424804688 15.524174690246582031 16.007810592651367188 16.492422103881835938 16.977926254272460938 17.4642486572265625 17.951322555541992188 18.439088821411132812 18.927494049072265625 19.4164886474609375 19.90602874755859375 20.396078109741210938 20.886598587036132812 21.377557754516601562 21.868927001953125 22.36067962646484375 22.852788925170898438 23.345235824584960938 23.837995529174804688 24.331050872802734375 24.824382781982421875 25.3179779052734375 25.811819076538085938 26.3058929443359375 26.8001861572265625 27.294687271118164062 26.879360198974609375 26.405492782592773438 25.932605743408203125 25.46075439453125 24.98999786376953125 24.520399093627929688 24.052026748657226562 23.58495330810546875 23.119256973266601562 22.65502166748046875 22.192340850830078125 21.731313705444335938 21.272047042846679688 20.81465911865234375 20.359273910522460938 19.90602874755859375 19.455076217651367188 19.006578445434570312 18.560710906982421875 18.117670059204101562 17.677669525146484375 17.240940093994140625 16.807735443115234375
15.700318336486816406 15.206906318664550781 14.713938713073730469 14.221462249755859375 13.72953033447265625 13.238202095031738281 12.747549057006835938 12.257650375366210938 11.768602371215820312 11.280513763427734375 10.793516159057617188 10.307764053344726562 9.8234415054321289062 9.340770721435546875 8.8600225448608398438 8.381526947021484375 7.9056940078735351562 7.4330344200134277344 6.9641942977905273438 6.5 6.041522979736328125 5.5901699066162109375 5.1478152275085449219 4.7169904708862304688 4.3011627197265625 3.9051249027252197266 3.535533905029296875 3.2015621662139892578 2.9154758453369140625 2.6925823688507080078 2.5495097637176513672 2.5 2.2360680103302001953 1.8027756214141845703 1.4142135381698608398 1.1180340051651000977 1 1 0.70710676908493041992 0.5 0 0.5 1 1.4142135381698608398 1.8027756214141845703 2.2360680103302001953 2.6925823688507080078 3.1622776985168457031 3.3541018962860107422 3.6055512428283691406 3.535533905029296875 3.2015621662139892578 2.8284270763397216797 2.5 2.1213202476501464844 1.8027756214141845703 1.4142135381698608398 1.1180340051651000977 1 1 0.70710676908493041992 0.5 0.5 0.70710676908493041992 1 1 1.1180340051651000977 1.4142135381698608398 1.8027756214141845703 2.0615527629852294922 2.0615527629852294922 2 2 2.0615527629852294922 2.2360680103302001953 2.5 2.5 2.5495097637176513672 2.6925823688507080078 2.9154758453369140625 3.2015621662139892578 3.535533905029296875 3.6400549411773681641 3.8078866004943847656 4.0311288833618164062 4.2720017433166503906 4.4721360206604003906 4.6097722053527832031 4.7434163093566894531 4.9244289398193359375 5.1478152275085449219 5.4083271026611328125 5.7008771896362304688 6.0207972526550292969 6.3639612197875976562 6.7268118858337402344 7.1063351631164550781 7.5 7.9056940078735351562 8.3216581344604492188 8.7464275360107421875 9.17877960205078125 9.6176919937133789062 10.062305450439453125 10.511898040771484375 10.965856552124023438 11.423659324645996094 11.884863853454589844 12.349088668823242188 12.816005706787109375 13.285329818725585938 13.756816864013671875 14.230249404907226562 14.705441474914550781 15.182226181030273438 15.660459518432617188 16.140012741088867188 16.620769500732421875 17.102630615234375 17.585504531860351562 18.069311141967773438 18.553976058959960938 19.039432525634765625 19.525623321533203125 20.0124969482421875 20.5 20.988092422485351562 21.476732254028320312 21.965883255004882812 22.455511093139648438 22.945587158203125 23.436082839965820312 23.926971435546875 24.418230056762695312 24.909837722778320312 25.40177154541015625 25.894014358520507812 26.386548995971679688 26.879360198974609375 27.372430801391601562 27.041635513305664062 26.570659637451171875 26.100767135620117188 25.63201141357421875 25.164459228515625 24.698177337646484375 24.233242034912109375 23.769727706909179688 23.3077239990234375 22.847318649291992188 22.388612747192382812 21.931713104248046875 21.476732254028320312 21.02379608154296875 20.573040008544921875 20.12461090087890625 19.678668975830078125 19.235383987426757812 18.794946670532226562 18.3575592041015625 17.923448562622070312 17.492855072021484375 17.06604766845703125
15.628499984741210938 15.132745742797851562 14.637281417846679688 14.1421356201171875 13.647343635559082031 13.15294647216796875 12.65898895263671875 12.165525436401367188 11.672617912292480469 11.180339813232421875 10.688778877258300781 10.198039054870605469 9.70824432373046875 9.2195444107055664062 8.73212432861328125 8.2462110519409179688 7.7620873451232910156 7.2801098823547363281 6.8007354736328125 6.3245553970336914062 5.8523497581481933594 5.3851647377014160156 4.9244289398193359375 4.4721360206604003906 4.0311288833618164062 3.6055512428283691406 3.2015621662139892578 2.8284270763397216797 2.5 2.2360680103302001953 2.0615527629852294922 2 2.0615527629852294922 2.1213202476501464844 1.8027756214141845703 1.5811388492584228516 1.5 1.4142135381698608398 1 0.5 0 0.5 0.70710676908493041992 1.1180340051651000977 1.5811388492584228516 2.0615527629852294922 2.5 2.6925823688507080078 2.9154758453369140625 3.2015621662139892578 3.2015621662139892578 2.8284270763397216797 2.5 2.1213202476501464844 1.8027756214141845703 1.4142135381698608398 1.1180340051651000977 0.70710676908493041992 0.5 0.5 0.5 0 0 0.5 0.5 0.5 0.70710676908493041992 1.1180340051651000977 1.4142135381698608398 1.5811388492584228516 1.8027756214141845703 2.1213202476501464844 2.5 2.5495097637176513672 2.6925823688507080078 2.9154758453369140625 3 3.0413813591003417969 3.1622776985168457031 3.3541018962860107422 3.6055512428283691406 3.9051249027252197266 4.1231055259704589844 4.2720017433166503906 4.4721360206604003906 4.7169904708862304688 4.9244289398193359375 5.0990195274353027344 5.2201533317565917969 5.3851647377014160156 5.5901699066162109375 5.830951690673828125 6.1032776832580566406 6.4031243324279785156 6.7268118858337402344 7.07106781005859375 7.4330344200134277344 7.8102498054504394531 8.2006101608276367188 8.602325439453125 9.01387786865234375 9.4339809417724609375 9.861541748046875 10.295630455017089844 10.735455513000488281 11.180339813232421875 11.629703521728515625 12.08304595947265625 12.539936065673828125 13 13.462911605834960938 13.928388595581054688 14.396180152893066406 14.866068840026855469 15.337862014770507812 15.811388015747070312 16.286497116088867188 16.76305389404296875 17.240940093994140625 17.720045089721679688 18.200275421142578125 18.68154144287109375 19.163768768310546875 19.646883010864257812 20.13082122802734375 20.615528106689453125 21.100948333740234375 21.587032318115234375 22.073740005493164062 22.56102752685546875 23.048860549926757812 23.537204742431640625 24.026027679443359375 24.515300750732421875 25.004999160766601562 25.495098114013671875 25.98557281494140625 26.476404190063476562 26.967573165893554688 27.4590606689453125 27.212129592895507812 26.744157791137695312 26.27736663818359375 25.811819076538085938 25.347583770751953125 24.884735107421875 24.423349380493164062 23.963514328002929688 23.50531768798828125 23.048860549926757812 22.594247817993164062 22.141590118408203125 21.691011428833007812 21.242645263671875 20.796634674072265625 20.353132247924804688 19.9123077392578125 19.47434234619140625 19.039432525634765625 18.607793807983398438 18.179658889770507812 17.755281448364257812 17.334936141967773438
15.402921676635742188 15 14.577380180358886719 14.080127716064453125 13.583077430725097656 13.086252212524414062 12.589678764343261719 12.093386650085449219 11.597413063049316406 11.101801872253417969 10.606601715087890625 10.111874580383300781 9.6176919937133789062 9.1241436004638671875 8.6313381195068359375 8.1394100189208984375 7.648529052734375 7.1589107513427734375 6.6708321571350097656 6.1846585273742675781 5.7008771896362304688 5.2201533317565917969 4.7434163093566894531 4.2720017433166503906 3.8078866004943847656 3.3541018962860107422 2.9154758453369140625 2.5 2.1213202476501464844 1.8027756214141845703 1.5811388492584228516 1.5 1.5811388492584228516 1.8027756214141845703 2.1213202476501464844 2.0615527629852294922 2 1.5 1 0.5 0 0 0.5 1 1.4142135381698608398 1.8027756214141845703 2.0615527629852294922 2.2360680103302001953 2.5 2.8284270763397216797 2.8284270763397216797 2.5 2.1213202476501464844 1.8027756214141845703 1.4142135381698608398 1.1180340051651000977 0.70710676908493041992 0.5 0 0 0 0 0 0 0 0 0.5 0.70710676908493041992 1 1.1180340051651000977 1.4142135381698608398 1.8027756214141845703 2.2360680103302001953 2.6925823688507080078 3.1622776985168457031 3.3541018962860107422 3.5 3.535533905029296875 3.6400549411773681641 3.8078866004943847656 4.0311288833618164062 4.3011627197265625 4.6097722053527832031 4.7434163093566894531 4.9244289398193359375 5.1478152275085449219 5.3851647377014160156 5.5901699066162109375 5.7008771896362304688 5.8523497581481933594 6.041522979736328125 6.2649822235107421875 6.5192022323608398438 6.8007354736328125 7.1063351631164550781 7.4330344200134277344 7.7781744003295898438 8.1394100189208984375 8.5146932601928710938 8.9022464752197265625 9.3005380630493164062 9.70824432373046875 10.124228477478027344 10.547511100769042969 10.9772491455078125 11.41271209716796875 11.853269577026367188 12.298374176025390625 12.747549057006835938 13.20037841796875 13.656499862670898438 14.115593910217285156 14.577380180358886719 15.041608810424804688 15.508062362670898438 15.976545333862304688 16.4468841552734375 16.918924331665039062 17.392526626586914062 17.8675689697265625 18.343936920166015625 18.821529388427734375 19.300258636474609375 19.780040740966796875 20.260799407958984375 20.742467880249023438 21.224985122680664062 21.708293914794921875 22.192340850830078125 22.677080154418945312 23.162469863891601562 23.648468017578125 24.135036468505859375 24.622144699096679688 25.109758377075195312 25.597850799560546875 26.086395263671875 26.575365066528320312 27.064737319946289062 27.554491043090820312 27.390691757202148438 26.925823211669921875 26.462236404418945312 26 25.539186477661132812 25.07987213134765625 24.622144699096679688 24.1660919189453125 23.711811065673828125 23.25940704345703125 22.808988571166992188 22.36067962646484375 21.914606094360351562 21.470911026000976562 21.029741287231445312 20.591260910034179688 20.155643463134765625 19.72308349609375 19.293781280517578125 18.867961883544921875 18.445867538452148438 18.0277557373046875 17.61391448974609375
15.116216659545898438 14.705441474914550781 14.300349235534667969 13.892443656921386719 13.462911605834960938 13.038404464721679688 12.539936065673828125 12.041594505310058594 11.54339599609375 11.045360565185546875 10.547511100769042969 10.049875259399414062 9.552486419677734375 9.055385589599609375 8.5586214065551757812 8.0622577667236328125 7.5663728713989257812 7.07106781005859375 6.576473236083984375 6.0827627182006835938 5.5901699066162109375 5.0990195274353027344 4.6097722053527832031 4.1231055259704589844 3.6400549411773681641 3.1622776985168457031 2.6925823688507080078 2.2360680103302001953 1.8027756214141845703 1.4142135381698608398 1.1180340051651000977 1 1.1180340051651000977 1.4142135381698608398 1.8027756214141845703 2.2360680103302001953 2 1.5 1 0.5 0 0 0.5 0.70710676908493041992 1.1180340051651000977 1.4142135381698608398 1.5811388492584228516 1.8027756214141845703 2.1213202476501464844 2.5 2.5 2.1213202476501464844 1.8027756214141845703 1.4142135381698608398 1.1180340051651000977 0.70710676908493041992 0.5 0 0 0 0.5 0.5 0.5 0 0 0 0 0.5 0.5 0.70710676908493041992 1.1180340051651000977 1.5811388492584228516 2.0615527629852294922 2.5495097637176513672 3.0413813591003417969 3.535533905029296875 4 4.0311288833618164062 4.1231055259704589844 4.2720017433166503906 4.4721360206604003906 4.7169904708862304688 5 5.2201533317565917969 5.3851647377014160156 5.5901699066162109375 5.830951690673828125 6.0827627182006835938 6.1846585273742675781 6.3245553970336914062 6.5 6.7082037925720214844 6.9462218284606933594 7.2111024856567382812 7.5 7.8102498054504394531 8.1394100189208984375 8.4852809906005859375 8.8459033966064453125 9.2195444107055664062 9.604686737060546875 10 10.404326438903808594 10.816654205322265625 11.236102104187011719 11.66190338134765625 12.093386650085449219 12.529964447021484375 12.971121788024902344 13.416407585144042969 13.865424156188964844 14.317821502685546875 14.773286819458007812 15.231546401977539062 15.692355155944824219 16.15549468994140625 16.620769500732421875 17.088006973266601562 17.557050704956054688 18.0277557373046875 18.5 18.973665237426757812 19.448650360107421875 19.92485809326171875 20.4022064208984375 20.880613327026367188 21.360010147094726562 21.840330123901367188 22.321514129638671875 22.803508758544921875 23.28626251220703125 23.769727706909179688 24.253866195678710938 24.738634109497070312 25.223997116088867188 25.709920883178710938 26.19637298583984375 26.683328628540039062 27.170755386352539062 27.658634185791015625 27.5771636962890625 27.1154937744140625 26.655206680297851562 26.19637298583984375 25.73907470703125 25.28339385986328125 24.829418182373046875 24.3772430419921875 23.926971435546875 23.4787139892578125 23.03258514404296875 22.588714599609375 22.147233963012695312 21.708293914794921875 21.272047042846679688 20.838666915893554688 20.408330917358398438 19.981241226196289062 19.557607650756835938 19.137659072875976562 18.721645355224609375 18.309833526611328125 17.902513504028320312
14.840822219848632812 14.422204971313476562 14.008925437927246094 13.601470947265625 13.20037841796875 12.776932716369628906 12.349088668823242188 11.926860809326171875 11.5108642578125 11.011357307434082031 10.511898040771484375 10.012492179870605469 9.513149261474609375 9.01387786865234375 8.5146932601928710938 8.0156097412109375 7.5166482925415039062 7.0178341865539550781 6.5192022323608398438 6.0207972526550292969 5.5226802825927734375 5.0249376296997070312 4.5276927947998046875 4.0311288833618164062 3.535533905029296875 3.0413813591003417969 2.5495097637176513672 2.0615527629852294922 1.5811388492584228516 1.1180340051651000977 0.70710676908493041992 0.5 0.70710676908493041992 1.1180340051651000977 1.5811388492584228516 2.0615527629852294922 2.0615527629852294922 1.5811388492584228516 1.1180340051651000977 0.70710676908493041992 0.5 0 0 0.5 0.70710676908493041992 1 1.1180340051651000977 1.4142135381698608398 1.8027756214141845703 2.1213202476501464844 2.1213202476501464844 1.8027756214141845703 1.4142135381698608398 1.1180340051651000977 0.70710676908493041992 0.5 0 0 0.5 0.5 0.70710676908493041992 1 0.70710676908493041992 0.5 0.5 0 0 0 0 0.5 1 1.5 2 2.5 3 3.5 4 4.5 4.6097722053527832031 4.7434163093566894531 4.9244289398193359375 5.1478152275085449219 5.4083271026611328125 5.7008771896362304688 5.8523497581481933594 6.041522979736328125 6.2649822235107421875 6.5192022323608398438 6.6708321571350097656 6.8007354736328125 6.9641942977905273438 7.1589107513427734375 7.3824114799499511719 7.6321687698364257812 7.9056940078735351562 8.2006101608276367188 8.5146932601928710938 8.8459033966064453125 9.1923885345458984375 9.552486419677734375 9.924716949462890625 10.307764053344726562 10.700467109680175781 11.101801872253417969 11.5108642578125 11.926860809326171875 12.349088668823242188 12.776932716369628906 13.209844589233398438 13.647343635559082031 14.089002609252929688 14.534441947937011719 14.983324050903320312 15.435349464416503906 15.890248298645019531 16.347782135009765625 16.807735443115234375 17.269916534423828125 17.734148025512695312 18.200275421142578125 18.668153762817382812 19.137659072875976562 19.608671188354492188 20.081085205078125 20.554803848266601562 21.029741287231445312 21.5058135986328125 21.98294830322265625 22.461076736450195312 22.9401397705078125 23.420076370239257812 23.900836944580078125 24.3823699951171875 24.864633560180664062 25.347583770751953125 25.831182479858398438 26.315395355224609375 26.8001861572265625 27.285528182983398438 27.771389007568359375 27.771389007568359375 27.312999725341796875 26.856098175048828125 26.4007568359375 25.947061538696289062 25.495098114013671875 25.04496002197265625 24.59674835205078125 24.150569915771484375 23.706539154052734375 23.264780044555664062 22.8254241943359375 22.388612747192382812 21.954498291015625 21.523242950439453125 21.095022201538085938 20.670026779174804688 20.248456954956054688 19.830532073974609375 19.4164886474609375 19.006578445434570312 18.601076126098632812 18.200275421142578125
14.577380180358886719 14.150971412658691406 13.72953033447265625 13.313527107238769531 12.9034881591796875 12.5 12.093386650085449219 11.66190338134765625 11.236102104187011719 10.816654205322265625 10.404326438903808594 10 9.5 9 8.5 8 7.5 7 6.5 6 5.5 5 4.5 4 3.5 3 2.5 2 1.5 1 0.5 0 0.5 1 1.5 2 2.2360680103302001953 1.8027756214141845703 1.4142135381698608398 1.1180340051651000977 0.70710676908493041992 0.5 0 0 0.5 0.5 0.70710676908493041992 1.1180340051651000977 1.4142135381698608398 1.8027756214141845703 1.8027756214141845703 1.4142135381698608398 1.1180340051651000977 0.70710676908493041992 0.5 0 0 0.5 0.70710676908493041992 1 1.1180340051651000977 1.4142135381698608398 1.1180340051651000977 1 0.70710676908493041992 0.5 0 0 0 0.5 1 1.5 2 2.5 3 3.5 4 4.5 5 5.2201533317565917969 5.3851647377014160156 5.5901699066162109375 5.830951690673828125 6.1032776832580566406 6.3245553970336914062 6.5 6.7082037925720214844 6.9462218284606933594 7.1589107513427734375 7.2801098823547363281 7.4330344200134277344 7.6157732009887695312 7.8262381553649902344 8.0622577667236328125 8.3216581344604492188 8.602325439453125 8.9022464752197265625 9.2195444107055664062 9.552486419677734375 9.8994951248168945312 10.259141921997070312 10.630146026611328125 11.011357307434082031 11.401754379272460938 11.800423622131347656 12.206555366516113281 12.619429588317871094 13.038404464721679688 13.462911605834960938 13.892443656921386719 14.326548576354980469 14.764822959899902344 15.206906318664550781 15.652476310729980469 16.1012420654296875 16.552946090698242188 17.007350921630859375 17.4642486572265625 17.923448562622070312 18.384777069091796875 18.848077774047851562 19.313207626342773438 19.780040740966796875 20.248456954956054688 20.718349456787109375 21.1896209716796875 21.662179946899414062 22.135944366455078125 22.610837936401367188 23.0867919921875 23.56374359130859375 24.041629791259765625 24.520399093627929688 25 25.48038482666015625 25.96150970458984375 26.44333648681640625 26.925823211669921875 27.408939361572265625 27.892650604248046875 27.973201751708984375 27.518175125122070312 27.064737319946289062 26.612966537475585938 26.162950515747070312 25.714780807495117188 25.268556594848632812 24.824382781982421875 24.3823699951171875 23.942640304565429688 23.50531768798828125 23.070543289184570312 22.638462066650390625 22.209232330322265625 21.78302001953125 21.360010147094726562 20.94039154052734375 20.52437591552734375 20.112184524536132812 19.704059600830078125 19.300258636474609375 18.901058197021484375 18.506755828857421875
14.326548576354980469 13.892443656921386719 13.462911605834960938 13.038404464721679688 12.619429588317871094 12.206555366516113281 11.800423622131347656 11.401754379272460938 10.9772491455078125 10.547511100769042969 10.124228477478027344 9.70824432373046875 9.3005380630493164062 8.9022464752197265625 8.5 8 7.5 7 6.5 6 5.5 5 4.5 4 3.5 3 2.5 2 1.5 1 0.5 0 0.5 1 1.5 2 2.5 2.1213202476501464844 1.8027756214141845703 1.4142135381698608398 1 0.5 0 0 0 0 0.5 0.70710676908493041992 1.1180340051651000977 1.5811388492584228516 1.4142135381698608398 1.1180340051651000977 0.70710676908493041992 0.5 0 0 0.5 0.70710676908493041992 1.1180340051651000977 1.4142135381698608398 1.5811388492584228516 1.8027756214141845703 1.5811388492584228516 1.4142135381698608398 1.1180340051651000977 0.70710676908493041992 0.5 0.5 0.5 0.70710676908493041992 1.1180340051651000977 1.5811388492584228516 2.0615527629852294922 2.5495097637176513672 3.0413813591003417969 3.535533905029296875 4.0311288833618164062 4.5276927947998046875 5.0249376296997070312 5.5226802825927734375 5.8523497581481933594 6.041522979736328125 6.2649822235107421875 6.5192022323608398438 6.8007354736328125 6.9641942977905273438 7.1589107513427734375 7.3824114799499511719 7.6321687698364257812 7.7620873451232910156 7.9056940078735351562 8.077747344970703125 8.2764730453491210938 8.5 8.7464275360107421875 9.01387786865234375 9.3005380630493164062 9.604686737060546875 9.924716949462890625 10.259141921997070312 10.606601715087890625 10.965856552124023438 11.335783958435058594 11.715374946594238281 12.103718757629394531 12.5 12.9034881591796875 13.313527107238769531 13.72953033447265625 14.150971412658691406 14.577380180358886719 15.008331298828125 15.443445205688476562 15.882380485534667969 16.324827194213867188 16.770509719848632812 17.219175338745117188 17.670597076416015625 18.124568939208984375 18.580904006958007812 19.039432525634765625 19.5 19.962465286254882812 20.426698684692382812 20.892581939697265625 21.360010147094726562 21.82888031005859375 22.299102783203125 22.770595550537109375 23.24327850341796875 23.717082977294921875 24.1919403076171875 24.66779327392578125 25.144582748413085938 25.622255325317382812 26.100767135620117188 26.580068588256835938 27.060117721557617188 27.5408782958984375 28.022312164306640625 28.18244171142578125 27.730848312377929688 27.28094482421875 26.832815170288085938 26.386548995971679688 25.942243576049804688 25.5 25.05992889404296875 24.622144699096679688 24.186773300170898438 23.753946304321289062 23.3238067626953125 22.896505355834960938 22.472204208374023438 22.051076889038085938 21.63330841064453125 21.219095230102539062 20.808652877807617188 20.4022064208984375 20 19.602294921875 19.20937347412109375 18.821529388427734375
14.089002609252929688 13.647343635559082031 13.209844589233398438 12.776932716369628906 12.349088668823242188 11.926860809326171875 11.5108642578125 11.101801872253417969 10.700467109680175781 10.295630455017089844 9.861541748046875 9.4339809417724609375 9.01387786865234375 8.602325439453125 8.2006101608276367188 7.8102498054504394531 7.4330344200134277344 7 6.5 6 5.5 5 4.5 4 3.5 3 2.5 2 1.5 1 0.5 0 0.5 1 1.5 2 2.5 2.5 2.0615527629852294922 1.5811388492584228516 1.1180340051651000977 0.70710676908493041992 0.5 0.5 0.5 0 0 0.5 1 1.4142135381698608398 1.1180340051651000977 0.70710676908493041992 0.5 0 0 0.5 0.70710676908493041992 1.1180340051651000977 1.4142135381698608398 1.5 1.5 1.5811388492584228516 1.8027756214141845703 1.8027756214141845703 1.4142135381698608398 1.1180340051651000977 1 1 1 1.1180340051651000977 1.4142135381698608398 1.8027756214141845703 2.2360680103302001953 2.6925823688507080078 3.1622776985168457031 3.6400549411773681641 4.1231055259704589844 4.6097722053527832031 5.0990195274353027344 5.5901699066162109375 6.0827627182006835938 6.5 6.7082037925720214844 6.9462218284606933594 7.2111024856567382812 7.4330344200134277344 7.6157732009887695312 7.8262381553649902344 8.0622577667236328125 8.2462110519409179688 8.381526947021484375 8.5440034866333007812 8.73212432861328125 8.9442720413208007812 9.17877960205078125 9.4339809417724609375 9.70824432373046875 10 10.307764053344726562 10.630146026611328125 10.965856552124023438 11.313708305358886719 11.672617912292480469 12.041594505310058594 12.419742584228515625 12.806248664855957031 13.20037841796875 13.601470947265625 14.008925437927246094 14.422204971313476562 14.840822219848632812 15.264337539672851562 15.692355155944824219 16.124515533447265625 16.560495376586914062 17 17.4427642822265625 17.888544082641601562 18.33712005615234375 18.788293838500976562 19.24188232421875 19.69771575927734375 20.155643463134765625 20.615528106689453125 21.077238082885742188 21.540658950805664062 22.005681991577148438 22.472204208374023438 22.9401397705078125 23.409399032592773438 23.879907608032226562 24.351591110229492188 24.824382781982421875 25.298221588134765625 25.77304840087890625 26.248809814453125 26.72545623779296875 27.20294189453125 27.68122100830078125 28.16025543212890625 28.398942947387695312 27.950849533081054688 27.504545211791992188 27.060117721557617188 26.617662429809570312 26.177280426025390625 25.73907470703125 25.30316162109375 24.869659423828125 24.438699722290039062 24.01041412353515625 23.58495330810546875 23.162469863891601562 22.743131637573242188 22.327114105224609375 21.914606094360351562 21.5058135986328125 21.100948333740234375 20.7002410888671875 20.3039398193359375 19.9123077392578125 19.525623321533203125 19.144189834594726562
13.865424156188964844 13.416407585144042969 12.971121788024902344 12.529964447021484375 12.093386650085449219 11.66190338134765625 11.236102104187011719 10.816654205322265625 10.404326438903808594 10 9.604686737060546875 9.17877960205078125 8.7464275360107421875 8.3216581344604492188 7.9056940078735351562 7.5 7.1063351631164550781 6.7268118858337402344 6.3639612197875976562 6.0207972526550292969 5.5226802825927734375 5.0249376296997070312 4.5276927947998046875 4.0311288833618164062 3.535533905029296875 3.0413813591003417969 2.5495097637176513672 2.0615527629852294922 1.5811388492584228516 1.1180340051651000977 0.70710676908493041992 0.5 0.70710676908493041992 1.1180340051651000977 1.5811388492584228516 2.0615527629852294922 2.5 2.6925823688507080078 2.2360680103302001953 1.8027756214141845703 1.4142135381698608398 1.1180340051651000977 1 1 0.70710676908493041992 0.5 0 0.5 0.70710676908493041992 1.1180340051651000977 0.70710676908493041992 0.5 0 0 0.5 0.70710676908493041992 1.1180340051651000977 1.4142135381698608398 1.1180340051651000977 1 1 1.1180340051651000977 1.4142135381698608398 1.8027756214141845703 1.8027756214141845703 1.5811388492584228516 1.5 1.5 1.5 1.5811388492584228516 1.8027756214141845703 2.1213202476501464844 2.5 2.9154758453369140625 3.3541018962860107422 3.8078866004943847656 4.2720017433166503906 4.7434163093566894531 5.2201533317565917969 5.7008771896362304688 6.1846585273742675781 6.6708321571350097656 7.1589107513427734375 7.3824114799499511719 7.6321687698364257812 7.9056940078735351562 8.077747344970703125 8.2764730453491210938 8.5 8.73212432861328125 8.8600225448608398438 9.01387786865234375 9.1923885345458984375 9.3941469192504882812 9.6176919937133789062 9.861541748046875 10.124228477478027344 10.404326438903808594 10.700467109680175781 11.011357307434082031 11.335783958435058594 11.672617912292480469 12.020814895629882812 12.379418373107910156 12.747549057006835938 13.1244049072265625 13.509256362915039062 13.901438713073730469 14.300349235534667969 14.705441474914550781 15.116216659545898438 15.532224655151367188 15.95305633544921875 16.378339767456054688 16.807735443115234375 17.240940093994140625 17.677669525146484375 18.117670059204101562 18.560710906982421875 19.006578445434570312 19.455076217651367188 19.90602874755859375 20.359273910522460938 20.81465911865234375 21.272047042846679688 21.731313705444335938 22.192340850830078125 22.65502166748046875 23.119256973266601562 23.58495330810546875 24.052026748657226562 24.520399093627929688 24.98999786376953125 25.46075439453125 25.932605743408203125 26.405492782592773438 26.879360198974609375 27.354158401489257812 27.829839706420898438 28.306360244750976562 28.6225433349609375 28.178005218505859375 27.735357284545898438 27.294687271118164062 26.856098175048828125 26.419689178466796875 25.98557281494140625 25.553865432739257812 25.124689102172851562 24.698177337646484375 24.274471282958984375 23.85372161865234375 23.436082839965820312 23.021728515625 22.610837936401367188 22.203603744506835938 21.800230026245117188 21.400934219360351562 21.005950927734375 20.615528106689453125 20.229928970336914062 19.84943389892578125 19.47434234619140625
13.656499862670898438 13.20037841796875 12.747549057006835938 12.298374176025390625 11.853269577026367188 11.41271209716796875 10.9772491455078125 10.547511100769042969 10.124228477478027344 9.70824432373046875 9.3005380630493164062 8.9022464752197265625 8.5 8.0622577667236328125 7.6321687698364257812 7.2111024856567382812 6.8007354736328125 6.4031243324279785156 6.0207972526550292969 5.6568541526794433594 5.3150730133056640625 5 4.6097722053527832031 4.1231055259704589844 3.6400549411773681641 3.1622776985168457031 2.6925823688507080078 2.2360680103302001953 1.8027756214141845703 1.4142135381698608398 1.1180340051651000977 1 1.1180340051651000977 1.4142135381698608398 1.5811388492584228516 1.8027756214141845703 2.1213202476501464844 2.5 2.5 2.1213202476501464844 1.8027756214141845703 1.5811388492584228516 1.5 1 0.5 0 0 0 0.5 1 0.5 0 0 0.5 0.70710676908493041992 1.1180340051651000977 1.4142135381698608398 1.1180340051651000977 0.70710676908493041992 0.5 0.5 0.70710676908493041992 1.1180340051651000977 1.5811388492584228516 2.0615527629852294922 2.0615527629852294922 2 2 2 2.0615527629852294922 2.2360680103302001953 2.5 2.8284270763397216797 3.2015621662139892578 3.6055512428283691406 4.0311288833618164062 4.4721360206604003906 4.9244289398193359375 5.3851647377014160156 5.8523497581481933594 6.3245553970336914062 6.8007354736328125 7.2801098823547363281 7.7620873451232910156 8.0622577667236328125 8.3216581344604492188 8.5440034866333007812 8.73212432861328125 8.9442720413208007812 9.17877960205078125 9.340770721435546875 9.4868326187133789062 9.6566038131713867188 9.848857879638671875 10.062305450439453125 10.295630455017089844 10.547511100769042969 10.816654205322265625 11.101801872253417969 11.401754379272460938 11.715374946594238281 12.041594505310058594 12.379418373107910156 12.727922439575195312 13.086252212524414062 13.453623771667480469 13.829317092895507812 14.212670326232910156 14.603081703186035156 15 15.402921676635742188 15.811388015747070312 16.224981307983398438 16.643316268920898438 17.06604766845703125 17.492855072021484375 17.923448562622070312 18.3575592041015625 18.794946670532226562 19.235383987426757812 19.678668975830078125 20.12461090087890625 20.573040008544921875 21.02379608154296875 21.476732254028320312 21.931713104248046875 22.388612747192382812 22.847318649291992188 23.3077239990234375 23.769727706909179688 24.233242034912109375 24.698177337646484375 25.164459228515625 25.63201141357421875 26.100767135620117188 26.570659637451171875 27.041635513305664062 27.51363372802734375 27.986604690551757812 28.460498809814453125 28.853076934814453125 28.412145614624023438 27.973201751708984375 27.53633880615234375 27.101659774780273438 26.669271469116210938 26.239282608032226562 25.811819076538085938 25.387004852294921875 24.964975357055664062 24.54587554931640625 24.129856109619140625 23.717082977294921875 23.3077239990234375 22.901964187622070312 22.5 22.1020355224609375 21.708293914794921875 21.319005966186523438 20.934421539306640625 20.554803848266601562 20.1804351806640625 19.811613082885742188
13.462911605834960938 13 12.539936065673828125 12.08304595947265625 11.629703521728515625 11.180339813232421875 10.735455513000488281 10.295630455017089844 9.861541748046875 9.4339809417724609375 9.01387786865234375 8.602325439453125 8.2006101608276367188 7.8102498054504394531 7.3824114799499511719 6.9462218284606933594 6.5192022323608398438 6.1032776832580566406 5.7008771896362304688 5.3150730133056640625 4.9497475624084472656 4.6097722053527832031 4.3011627197265625 4.0311288833618164062 3.8078866004943847656 3.3541018962860107422 2.9154758453369140625 2.5 2.1213202476501464844 1.8027756214141845703 1.4142135381698608398 1.1180340051651000977 1 1 1.1180340051651000977 1.4142135381698608398 1.8027756214141845703 2.2360680103302001953 2.6925823688507080078 2.5 2.2360680103302001953 2 1.5 1 0.5 0 0 0.5 0.70710676908493041992 1 0.5 0 0 0.5 1 1.1180340051651000977 1 0.70710676908493041992 0.5 0 0 0.5 1 1.5 2 2.5 2.5 2.5 2.5 2.5495097637176513672 2.6925823688507080078 2.9154758453369140625 3.2015621662139892578 3.535533905029296875 3.9051249027252197266 4.3011627197265625 4.7169904708862304688 5.1478152275085449219 5.5901699066162109375 6.041522979736328125 6.5 6.9641942977905273438 7.4330344200134277344 7.9056940078735351562 8.381526947021484375 8.7464275360107421875 9.01387786865234375 9.1923885345458984375 9.3941469192504882812 9.6176919937133789062 9.8234415054321289062 9.962429046630859375 10.124228477478027344 10.307764053344726562 10.511898040771484375 10.735455513000488281 10.9772491455078125 11.236102104187011719 11.5108642578125 11.800423622131347656 12.103718757629394531 12.419742584228515625 12.747549057006835938 13.086252212524414062 13.435029029846191406 13.793114662170410156 14.159802436828613281 14.534441947937011719 14.916434288024902344 15.305228233337402344 15.700318336486816406 16.1012420654296875 16.507574081420898438 16.918924331665039062 17.334936141967773438 17.755281448364257812 18.179658889770507812 18.607793807983398438 19.039432525634765625 19.47434234619140625 19.9123077392578125 20.353132247924804688 20.796634674072265625 21.242645263671875 21.691011428833007812 22.141590118408203125 22.594247817993164062 23.048860549926757812 23.50531768798828125 23.963514328002929688 24.423349380493164062 24.884735107421875 25.347583770751953125 25.811819076538085938 26.27736663818359375 26.744157791137695312 27.212129592895507812 27.68122100830078125 28.151376724243164062 28.6225433349609375 29.090375900268554688 28.653097152709960938 28.217901229858398438 27.784887313842773438 27.354158401489257812 26.925823211669921875 26.5 26.076808929443359375 25.656383514404296875 25.238859176635742188 24.824382781982421875 24.413110733032226562 24.005207061767578125 23.600847244262695312 23.200216293334960938 22.803508758544921875 22.4109344482421875 22.022714614868164062 21.639085769653320312 21.26029205322265625 20.886598587036132812 20.518283843994140625 20.155643463134765625
13.285329818725585938 12.816005706787109375 12.349088668823242188 11.884863853454589844 11.423659324645996094 10.965856552124023438 10.511898040771484375 10.062305450439453125 9.6176919937133789062 9.17877960205078125 8.7464275360107421875 8.3216581344604492188 7.9056940078735351562 7.5 7.1063351631164550781 6.7082037925720214844 6.2649822235107421875 5.830951690673828125 5.4083271026611328125 5 4.6097722053527832031 4.2426404953002929688 3.9051249027252197266 3.6055512428283691406 3.3541018962860107422 3.1622776985168457031 3.0413813591003417969 2.5495097637176513672 2.0615527629852294922 1.5811388492584228516 1.1180340051651000977 0.70710676908493041992 0.5 0.5 0.70710676908493041992 1.1180340051651000977 1.5811388492584228516 2.0615527629852294922 2.5495097637176513672 2.9154758453369140625 2.5495097637176513672 2.0615527629852294922 1.5811388492584228516 1.1180340051651000977 0.70710676908493041992 0.5 0 0.5 1 1 0.5 0 0 0.5 1 0.70710676908493041992 0.5 0.5 0 0 0.5 0.70710676908493041992 1.1180340051651000977 1.5811388492584228516 2.0615527629852294922 2.5495097637176513672 3 3 3 3.0413813591003417969 3.1622776985168457031 3.3541018962860107422 3.6055512428283691406 3.9051249027252197266 4.2426404953002929688 4.6097722053527832031 5 5.4083271026611328125 5.830951690673828125 6.2649822235107421875 6.7082037925720214844 7.1589107513427734375 7.6157732009887695312 8.077747344970703125 8.5440034866333007812 9.01387786865234375 9.4868326187133789062 9.6566038131713867188 9.848857879638671875 10.062305450439453125 10.295630455017089844 10.440306663513183594 10.59481048583984375 10.770329475402832031 10.965856552124023438 11.180339813232421875 11.41271209716796875 11.66190338134765625 11.926860809326171875 12.206555366516113281 12.5 12.806248664855957031 13.1244049072265625 13.453623771667480469 13.793114662170410156 14.1421356201171875 14.5 14.866068840026855469 15.239750862121582031 15.620499610900878906 16.007810592651367188 16.401220321655273438 16.800296783447265625 17.20465087890625 17.61391448974609375 18.0277557373046875 18.445867538452148438 18.867961883544921875 19.293781280517578125 19.72308349609375 20.155643463134765625 20.591260910034179688 21.029741287231445312 21.470911026000976562 21.914606094360351562 22.36067962646484375 22.808988571166992188 23.25940704345703125 23.711811065673828125 24.1660919189453125 24.622144699096679688 25.07987213134765625 25.539186477661132812 26 26.462236404418945312 26.925823211669921875 27.390691757202148438 27.856777191162109375 28.324018478393554688 28.792360305786132812 29.261749267578125 28.900691986083984375 28.469282150268554688 28.040149688720703125 27.6134033203125 27.189151763916015625 26.76751708984375 26.34862518310546875 25.932605743408203125 25.51959991455078125 25.109758377075195312 24.70323944091796875 24.300205230712890625 23.900836944580078125 23.50531768798828125 23.113847732543945312 22.726636886596679688 22.343902587890625 21.965883255004882812 21.592823028564453125 21.224985122680664062 20.862646102905273438 20.50609588623046875
13.1244049072265625 12.649110794067382812 12.175795555114746094 11.704699516296386719 11.236102104187011719 10.770329475402832031 10.307764053344726562 9.848857879638671875 9.3941469192504882812 8.9442720413208007812 8.5 8.0622577667236328125 7.6321687698364257812 7.2111024856567382812 6.8007354736328125 6.4031243324279785156 6.0207972526550292969 5.5901699066162109375 5.1478152275085449219 4.7169904708862304688 4.3011627197265625 3.9051249027252197266 3.535533905029296875 3.2015621662139892578 2.9154758453369140625 2.6925823688507080078 2.5495097637176513672 2.5 2 1.5 1 0.5 0 0 0.5 1 1.5 2 2.5 2.9154758453369140625 2.6925823688507080078 2.2360680103302001953 1.8027756214141845703 1.4142135381698608398 1.1180340051651000977 0.70710676908493041992 0.5 0.70710676908493041992 1 1 0.5 0 0.5 0.5 0.5 0.5 0 0 0 0 0.5 1 1.4142135381698608398 1.8027756214141845703 2.2360680103302001953 2.6925823688507080078 3.1622776985168457031 3.5 3.5 3.535533905029296875 3.6400549411773681641 3.8078866004943847656 4.0311288833618164062 4.3011627197265625 4.6097722053527832031 4.9497475624084472656 5.3150730133056640625 5.7008771896362304688 6.1032776832580566406 6.5192022323608398438 6.9462218284606933594 7.3824114799499511719 7.8262381553649902344 8.2764730453491210938 8.73212432861328125 9.1923885345458984375 9.6566038131713867188 10.124228477478027344 10.307764053344726562 10.511898040771484375 10.735455513000488281 10.920165061950683594 11.067972183227539062 11.236102104187011719 11.423659324645996094 11.629703521728515625 11.853269577026367188 12.093386650085449219 12.349088668823242188 12.619429588317871094 12.9034881591796875 13.20037841796875 13.509256362915039062 13.829317092895507812 14.159802436828613281 14.5 14.849242210388183594 15.206906318664550781 15.572411537170410156 15.945219039916992188 16.324827194213867188 16.710775375366210938 17.102630615234375 17.5 17.902513504028320312 18.309833526611328125 18.721645355224609375 19.137659072875976562 19.557607650756835938 19.981241226196289062 20.408330917358398438 20.838666915893554688 21.272047042846679688 21.708293914794921875 22.147233963012695312 22.588714599609375 23.03258514404296875 23.4787139892578125 23.926971435546875 24.3772430419921875 24.829418182373046875 25.28339385986328125 25.73907470703125 26.19637298583984375 26.655206680297851562 27.1154937744140625 27.5771636962890625 28.040149688720703125 28.504384994506835938 28.969812393188476562 29.436372756958007812 29.154760360717773438 28.72716522216796875 28.301942825317382812 27.87920379638671875 27.4590606689453125 27.041635513305664062 26.627054214477539062 26.2154541015625 25.806976318359375 25.40177154541015625 25 24.60182952880859375 24.207437515258789062 23.817010879516601562 23.430749893188476562 23.048860549926757812 22.671567916870117188 22.299102783203125 21.931713104248046875 21.569654464721679688 21.21320343017578125 20.862646102905273438
12.980754852294921875 12.5 12.020814895629882812 11.54339599609375 11.067972183227539062 10.59481048583984375 10.124228477478027344 9.6566038131713867188 9.1923885345458984375 8.73212432861328125 8.2764730453491210938 7.8262381553649902344 7.3824114799499511719 6.9462218284606933594 6.5192022323608398438 6.1032776832580566406 5.7008771896362304688 5.3150730133056640625 4.9244289398193359375 4.4721360206604003906 4.0311288833618164062 3.6055512428283691406 3.2015621662139892578 2.8284270763397216797 2.5 2.2360680103302001953 2.0615527629852294922 2 2.0615527629852294922 1.5811388492584228516 1.1180340051651000977 0.70710676908493041992 0.5 0 0.5 1 1.4142135381698608398 1.8027756214141845703 2.2360680103302001953 2.6925823688507080078 2.9154758453369140625 2.5 2.1213202476501464844 1.8027756214141845703 1.4142135381698608398 1.1180340051651000977 0.70710676908493041992 0.5 0.5 0.70710676908493041992 0.70710676908493041992 0.5 0 0 0 0.5 0.5 0 0.5 0.5 0.70710676908493041992 1.1180340051651000977 1.5811388492584228516 2.0615527629852294922 2.5 2.9154758453369140625 3.3541018962860107422 3.8078866004943847656 4 4.0311288833618164062 4.1231055259704589844 4.2720017433166503906 4.4721360206604003906 4.7169904708862304688 5 5.3150730133056640625 5.6568541526794433594 6.0207972526550292969 6.4031243324279785156 6.8007354736328125 7.2111024856567382812 7.6321687698364257812 8.0622577667236328125 8.5 8.9442720413208007812 9.3941469192504882812 9.848857879638671875 10.307764053344726562 10.770329475402832031 10.965856552124023438 11.180339813232421875 11.401754379272460938 11.54339599609375 11.704699516296386719 11.884863853454589844 12.08304595947265625 12.298374176025390625 12.529964447021484375 12.776932716369628906 13.038404464721679688 13.313527107238769531 13.601470947265625 13.901438713073730469 14.212670326232910156 14.534441947937011719 14.866068840026855469 15.206906318664550781 15.556348800659179688 15.913830757141113281 16.278820037841796875 16.65082550048828125 17.029386520385742188 17.414073944091796875 17.804492950439453125 18.200275421142578125 18.601076126098632812 19.006578445434570312 19.4164886474609375 19.830532073974609375 20.248456954956054688 20.670026779174804688 21.095022201538085938 21.523242950439453125 21.954498291015625 22.388612747192382812 22.8254241943359375 23.264780044555664062 23.706539154052734375 24.150569915771484375 24.59674835205078125 25.04496002197265625 25.495098114013671875 25.947061538696289062 26.4007568359375 26.856098175048828125 27.312999725341796875 27.771389007568359375 28.231187820434570312 28.692333221435546875 29.154760360717773438 29.618406295776367188 29.415132522583007812 28.9913787841796875 28.570089340209960938 28.151376724243164062 27.735357284545898438 27.322153091430664062 26.911893844604492188 26.504716873168945312 26.100767135620117188 25.7001953125 25.30316162109375 24.909837722778320312 24.520399093627929688 24.135036468505859375 23.753946304321289062 23.377340316772460938 23.005434036254882812 22.638462066650390625 22.276668548583984375 21.92031097412109375 21.569654464721679688 21.224985122680664062
12.854960441589355469 12.369317054748535156 11.884863853454589844 11.401754379272460938 10.920165061950683594 10.440306663513183594 9.962429046630859375 9.4868326187133789062 9.01387786865234375 8.5440034866333007812 8.077747344970703125 7.6157732009887695312 7.1589107513427734375 6.7082037925720214844 6.2649822235107421875 5.830951690673828125 5.4083271026611328125 5 4.6097722053527832031 4.2426404953002929688 3.8078866004943847656 3.3541018962860107422 2.9154758453369140625 2.5 2.1213202476501464844 1.8027756214141845703 1.5811388492584228516 1.5 1.5811388492584228516 1.8027756214141845703 1.4142135381698608398 1 0.5 0 0.5 0.70710676908493041992 1.1180340051651000977 1.5811388492584228516 2.0615527629852294922 2.5 2.9154758453369140625 2.8284270763397216797 2.5 2 1.5 1 0.5 0 0 0.5 0.5 0 0 0 0 0.5 0.70710676908493041992 0.5 0.70710676908493041992 1 1.1180340051651000977 1.4142135381698608398 1.8027756214141845703 2.2360680103302001953 2.6925823688507080078 3.1622776985168457031 3.6055512428283691406 4.0311288833618164062 4.4721360206604003906 4.5276927947998046875 4.6097722053527832031 4.7434163093566894531 4.9244289398193359375 5.1478152275085449219 5.4083271026611328125 5.7008771896362304688 6.0207972526550292969 6.3639612197875976562 6.7268118858337402344 7.1063351631164550781 7.5 7.9056940078735351562 8.3216581344604492188 8.7464275360107421875 9.17877960205078125 9.6176919937133789062 10.062305450439453125 10.511898040771484375 10.965856552124023438 11.423659324645996094 11.629703521728515625 11.853269577026367188 12.020814895629882812 12.175795555114746094 12.349088668823242188 12.539936065673828125 12.747549057006835938 12.971121788024902344 13.209844589233398438 13.462911605834960938 13.72953033447265625 14.008925437927246094 14.300349235534667969 14.603081703186035156 14.916434288024902344 15.239750862121582031 15.572411537170410156 15.913830757141113281 16.263456344604492188 16.620769500732421875 16.985288619995117188 17.356554031372070312 17.734148025512695312 18.117670059204101562 18.506755828857421875 18.901058197021484375 19.300258636474609375 19.704059600830078125 20.112184524536132812 20.52437591552734375 20.94039154052734375 21.360010147094726562 21.78302001953125 22.209232330322265625 22.638462066650390625 23.070543289184570312 23.50531768798828125 23.942640304565429688 24.3823699951171875 24.824382781982421875 25.268556594848632812 25.714780807495117188 26.162950515747070312 26.612966537475585938 27.064737319946289062 27.518175125122070312 27.973201751708984375 28.429737091064453125 28.887714385986328125 29.3470611572265625 29.80771636962890625 29.681644439697265625 29.261749267578125 28.844409942626953125 28.429737091064453125 28.017850875854492188 27.608875274658203125 27.20294189453125 26.8001861572265625 26.4007568359375 26.0048065185546875 25.612497329711914062 25.223997116088867188 24.83948516845703125 24.459150314331054688 24.083189010620117188 23.711811065673828125 23.345235824584960938 22.983690261840820312 22.627416610717773438 22.276668548583984375 21.931713104248046875 21.592823028564453125
12.747549057006835938 12.257650375366210938 11.768602371215820312 11.280513763427734375 10.793516159057617188 10.307764053344726562 9.8234415054321289062 9.340770721435546875 8.8600225448608398438 8.381526947021484375 7.9056940078735351562 7.4330344200134277344 6.9641942977905273438 6.5 6.041522979736328125 5.5901699066162109375 5.1478152275085449219 4.7169904708862304688 4.3011627197265625 3.9051249027252197266 3.535533905029296875 3.1622776985168457031 2.6925823688507080078 2.2360680103302001953 1.8027756214141845703 1.4142135381698608398 1.1180340051651000977 1 1.1180340051651000977 1.4142135381698608398 1.5 1 0.5 0 0 0.5 1 1.4142135381698608398 1.8027756214141845703 2.2360680103302001953 2.6925823688507080078 3 2.5 2 1.5 1 0.5 0 0.5 0 0.5 0.5 0.5 0.5 0.5 0.70710676908493041992 1.1180340051651000977 1 1.1180340051651000977 1.4142135381698608398 1.5811388492584228516 1.8027756214141845703 2.1213202476501464844 2.5 2.9154758453369140625 3.3541018962860107422 3.8078866004943847656 4.2720017433166503906 4.7169904708862304688 5.0249376296997070312 5.0990195274353027344 5.2201533317565917969 5.3851647377014160156 5.5901699066162109375 5.830951690673828125 6.1032776832580566406 6.4031243324279785156 6.7268118858337402344 7.07106781005859375 7.4330344200134277344 7.8102498054504394531 8.2006101608276367188 8.602325439453125 9.01387786865234375 9.4339809417724609375 9.861541748046875 10.295630455017089844 10.735455513000488281 11.180339813232421875 11.629703521728515625 12.08304595947265625 12.298374176025390625 12.5 12.649110794067382812 12.816005706787109375 13 13.20037841796875 13.416407585144042969 13.647343635559082031 13.892443656921386719 14.150971412658691406 14.422204971313476562 14.705441474914550781 15 15.305228233337402344 15.620499610900878906 15.945219039916992188 16.278820037841796875 16.620769500732421875 16.970561981201171875 17.327722549438476562 17.691806793212890625 18.062391281127929688 18.439088821411132812 18.821529388427734375 19.20937347412109375 19.602294921875 20 20.4022064208984375 20.808652877807617188 21.219095230102539062 21.63330841064453125 22.051076889038085938 22.472204208374023438 22.896505355834960938 23.3238067626953125 23.753946304321289062 24.186773300170898438 24.622144699096679688 25.05992889404296875 25.5 25.942243576049804688 26.386548995971679688 26.832815170288085938 27.28094482421875 27.730848312377929688 28.18244171142578125 28.63564300537109375 29.090375900268554688 29.546573638916015625 30.0041656494140625 29.954132080078125 29.538110733032226562 29.124731063842773438 28.714107513427734375 28.306360244750976562 27.901613235473632812 27.5 27.101659774780273438 26.7067413330078125 26.315395355224609375 25.927783966064453125 25.544078826904296875 25.164459228515625 24.789110183715820312 24.418230056762695312 24.052026748657226562 23.690715789794921875 23.334524154663085938 22.983690261840820312 22.638462066650390625 22.299102783203125 21.965883255004882812
12.65898895263671875 12.165525436401367188 11.672617912292480469 11.180339813232421875 10.688778877258300781 10.198039054870605469 9.70824432373046875 9.2195444107055664062 8.73212432861328125 8.2462110519409179688 7.7620873451232910156 7.2801098823547363281 6.8007354736328125 6.3245553970336914062 5.8523497581481933594 5.3851647377014160156 4.9244289398193359375 4.4721360206604003906 4.0311288833618164062 3.6055512428283691406 3.2015621662139892578 2.8284270763397216797 2.5 2.0615527629852294922 1.5811388492584228516 1.1180340051651000977 0.70710676908493041992 0.5 0.70710676908493041992 1.1180340051651000977 1.5811388492584228516 1.1180340051651000977 0.70710676908493041992 0.5 0 0.5 0.70710676908493041992 1.1180340051651000977 1.5811388492584228516 2.0615527629852294922 2.5495097637176513672 3.0413813591003417969 2.5495097637176513672 2.0615527629852294922 1.5811388492584228516 1.1180340051651000977 0.70710676908493041992 0.5 0.70710676908493041992 0.5 0.70710676908493041992 1 1 1 1 1.1180340051651000977 1.4142135381698608398 1.5 1.5811388492584228516 1.8027756214141845703 2.0615527629852294922 2.2360680103302001953 2.5 2.8284270763397216797 3.2015621662139892578 3.6055512428283691406 4.0311288833618164062 4.4721360206604003906 4.9244289398193359375 5.3851647377014160156 5.5901699066162109375 5.7008771896362304688 5.8523497581481933594 6.041522979736328125 6.2649822235107421875 6.5192022323608398438 6.8007354736328125 7.1063351631164550781 7.4330344200134277344 7.7781744003295898438 8.1394100189208984375 8.5146932601928710938 8.9022464752197265625 9.3005380630493164062 9.70824432373046875 10.124228477478027344 10.547511100769042969 10.9772491455078125 11.41271209716796875 11.853269577026367188 12.298374176025390625 12.747549057006835938 12.971121788024902344 13.1244049072265625 13.285329818725585938 13.462911605834960938 13.656499862670898438 13.865424156188964844 14.089002609252929688 14.326548576354980469 14.577380180358886719 14.840822219848632812 15.116216659545898438 15.402921676635742188 15.700318336486816406 16.007810592651367188 16.324827194213867188 16.65082550048828125 16.985288619995117188 17.327722549438476562 17.677669525146484375 18.034688949584960938 18.39836883544921875 18.768323898315429688 19.144189834594726562 19.525623321533203125 19.9123077392578125 20.3039398193359375 20.7002410888671875 21.100948333740234375 21.5058135986328125 21.914606094360351562 22.327114105224609375 22.743131637573242188 23.162469863891601562 23.58495330810546875 24.01041412353515625 24.438699722290039062 24.869659423828125 25.30316162109375 25.73907470703125 26.177280426025390625 26.617662429809570312 27.060117721557617188 27.504545211791992188 27.950849533081054688 28.398942947387695312 28.848743438720703125 29.3001708984375 29.75315093994140625 30.207614898681640625 30.232433319091796875 29.820295333862304688 29.410882949829101562 29.00431060791015625 28.600698471069335938 28.200178146362304688 27.802877426147460938 27.408939361572265625 27.018512725830078125 26.631748199462890625 26.248809814453125 25.869867324829101562 25.495098114013671875 25.124689102172851562 24.758836746215820312 24.397745132446289062 24.041629791259765625 23.690715789794921875 23.345235824584960938 23.005434036254882812 22.671567916870117188 22.343902587890625
12.589678764343261719 12.093386650085449219 11.597413063049316406 11.101801872253417969 10.606601715087890625 10.111874580383300781 9.6176919937133789062 9.1241436004638671875 8.6313381195068359375 8.1394100189208984375 7.648529052734375 7.1589107513427734375 6.6708321571350097656 6.1846585273742675781 5.7008771896362304688 5.2201533317565917969 4.7434163093566894531 4.2720017433166503906 3.8078866004943847656 3.3541018962860107422 2.9154758453369140625 2.5 2.1213202476501464844 1.8027756214141845703 1.5 1 0.5 0 0.5 1 1.4142135381698608398 1.4142135381698608398 1 0.5 0 0 0.5 1 1.5 2 2.5 3 2.6925823688507080078 2.2360680103302001953 1.8027756214141845703 1.4142135381698608398 1.1180340051651000977 1 1.1180340051651000977 1 1.1180340051651000977 1.4142135381698608398 1.5 1.5 1.5 1.5811388492584228516 1.8027756214141845703 2 2.0615527629852294922 2.2360680103302001953 2.5 2.6925823688507080078 2.9154758453369140625 3.2015621662139892578 3.535533905029296875 3.9051249027252197266 4.3011627197265625 4.7169904708862304688 5.1478152275085449219 5.5901699066162109375 6.041522979736328125 6.1846585273742675781 6.3245553970336914062 6.5 6.7082037925720214844 6.9462218284606933594 7.2111024856567382812 7.5 7.8102498054504394531 8.1394100189208984375 8.4852809906005859375 8.8459033966064453125 9.2195444107055664062 9.604686737060546875 10 10.404326438903808594 10.816654205322265625 11.236102104187011719 11.66190338134765625 12.093386650085449219 12.529964447021484375 12.971121788024902344 13.416407585144042969 13.601470947265625 13.756816864013671875 13.928388595581054688 14.115593910217285156 14.317821502685546875 14.534441947937011719 14.764822959899902344 15.008331298828125 15.264337539672851562 15.532224655151367188 15.811388015747070312 16.1012420654296875 16.401220321655273438 16.710775375366210938 17.029386520385742188 17.356554031372070312 17.691806793212890625 18.034688949584960938 18.384777069091796875 18.741664886474609375 19.10497283935546875 19.47434234619140625 19.84943389892578125 20.229928970336914062 20.615528106689453125 21.005950927734375 21.400934219360351562 21.800230026245117188 22.203603744506835938 22.610837936401367188 23.021728515625 23.436082839965820312 23.85372161865234375 24.274471282958984375 24.698177337646484375 25.124689102172851562 25.553865432739257812 25.98557281494140625 26.419689178466796875 26.856098175048828125 27.294687271118164062 27.735357284545898438 28.178005218505859375 28.6225433349609375 29.068883895874023438 29.51694488525390625 29.966648101806640625 30.4179229736328125 30.516389846801757812 30.1081390380859375 29.702693939208984375 29.3001708984375 28.900691986083984375 28.504384994506835938 28.111385345458984375 27.721832275390625 27.335874557495117188 26.953664779663085938 26.575365066528320312 26.201145172119140625 25.831182479858398438 25.465663909912109375 25.104780197143554688 24.748737335205078125 24.397745132446289062 24.052026748657226562 23.711811065673828125 23.377340316772460938 23.048860549926757812 22.726636886596679688
12.539936065673828125 12.041594505310058594 11.54339599609375 11.045360565185546875 10.547511100769042969 10.049875259399414062 9.552486419677734375 9.055385589599609375 8.5586214065551757812 8.0622577667236328125 7.5663728713989257812 7.07106781005859375 6.576473236083984375 6.0827627182006835938 5.5901699066162109375 5.0990195274353027344 4.6097722053527832031 4.1231055259704589844 3.6400549411773681641 3.1622776985168457031 2.6925823688507080078 2.2360680103302001953 1.8027756214141845703 1.4142135381698608398 1.1180340051651000977 1 0.5 0 0.5 0.70710676908493041992 1.1180340051651000977 1.4142135381698608398 1 0.5 0 0 0.5 1 1.5 2 2.5 3 2.9154758453369140625 2.5 2.1213202476501464844 1.8027756214141845703 1.5811388492584228516 1.5 1.5811388492584228516 1.5 1.5811388492584228516 1.8027756214141845703 2 2 2 2.0615527629852294922 2.2360680103302001953 2.5 2.5495097637176513672 2.6925823688507080078 2.9154758453369140625 3.1622776985168457031 3.3541018962860107422 3.6055512428283691406 3.9051249027252197266 4.2426404953002929688 4.6097722053527832031 5 5.4083271026611328125 5.830951690673828125 6.2649822235107421875 6.6708321571350097656 6.8007354736328125 6.9641942977905273438 7.1589107513427734375 7.3824114799499511719 7.6321687698364257812 7.9056940078735351562 8.2006101608276367188 8.5146932601928710938 8.8459033966064453125 9.1923885345458984375 9.552486419677734375 9.924716949462890625 10.307764053344726562 10.700467109680175781 11.101801872253417969 11.5108642578125 11.926860809326171875 12.349088668823242188 12.776932716369628906 13.209844589233398438 13.647343635559082031 14.080127716064453125 14.230249404907226562 14.396180152893066406 14.577380180358886719 14.773286819458007812 14.983324050903320312 15.206906318664550781 15.443445205688476562 15.692355155944824219 15.95305633544921875 16.224981307983398438 16.507574081420898438 16.800296783447265625 17.102630615234375 17.414073944091796875 17.734148025512695312 18.062391281127929688 18.39836883544921875 18.741664886474609375 19.091882705688476562 19.448650360107421875 19.811613082885742188 20.1804351806640625 20.554803848266601562 20.934421539306640625 21.319005966186523438 21.708293914794921875 22.1020355224609375 22.5 22.901964187622070312 23.3077239990234375 23.717082977294921875 24.129856109619140625 24.54587554931640625 24.964975357055664062 25.387004852294921875 25.811819076538085938 26.239282608032226562 26.669271469116210938 27.101659774780273438 27.53633880615234375 27.973201751708984375 28.412145614624023438 28.853076934814453125 29.295904159545898438 29.740545272827148438 30.186918258666992188 30.634946823120117188 30.805843353271484375 30.401479721069335938 30 29.601520538330078125 29.206163406372070312 28.814058303833007812 28.425340652465820312 28.040149688720703125 27.658634185791015625 27.28094482421875 26.907247543334960938 26.537708282470703125 26.172504425048828125 25.811819076538085938 25.455844879150390625 25.104780197143554688 24.758836746215820312 24.418230056762695312 24.083189010620117188 23.753946304321289062 23.430749893188476562 23.113847732543945312
12.509996414184570312 12.010412216186523438 11.5108642578125 11.011357307434082031 10.511898040771484375 10.012492179870605469 9.513149261474609375 9.01387786865234375 8.5146932601928710938 8.0156097412109375 7.5166482925415039062 7.0178341865539550781 6.5192022323608398438 6.0207972526550292969 5.5226802825927734375 5.0249376296997070312 4.5276927947998046875 4.0311288833618164062 3.535533905029296875 3.0413813591003417969 2.5495097637176513672 2.0615527629852294922 1.5811388492584228516 1.1180340051651000977 0.70710676908493041992 0.5 0.5 0 0 0.5 1 1.1180340051651000977 0.70710676908493041992 0.5 0 0 0.5 1 1.5 2 2.5 3 3.2015621662139892578 2.8284270763397216797 2.5 2.2360680103302001953 2.0615527629852294922 2 2.0615527629852294922 2 2.0615527629852294922 2.2360680103302001953 2.5 2.5 2.5 2.5495097637176513672 2.6925823688507080078 2.9154758453369140625 3.0413813591003417969 3.1622776985168457031 3.3541018962860107422 3.6055512428283691406 3.8078866004943847656 4.0311288833618164062 4.3011627197265625 4.6097722053527832031 4.9497475624084472656 5.3150730133056640625 5.7008771896362304688 6.1032776832580566406 6.5192022323608398438 6.9462218284606933594 7.2801098823547363281 7.4330344200134277344 7.6157732009887695312 7.8262381553649902344 8.0622577667236328125 8.3216581344604492188 8.602325439453125 8.9022464752197265625 9.2195444107055664062 9.552486419677734375 9.8994951248168945312 10.259141921997070312 10.630146026611328125 11.011357307434082031 11.401754379272460938 11.800423622131347656 12.206555366516113281 12.619429588317871094 13.038404464721679688 13.462911605834960938 13.892443656921386719 14.326548576354980469 14.705441474914550781 14.866068840026855469 15.041608810424804688 15.231546401977539062 15.435349464416503906 15.652476310729980469 15.882380485534667969 16.124515533447265625 16.378339767456054688 16.643316268920898438 16.918924331665039062 17.20465087890625 17.5 17.804492950439453125 18.117670059204101562 18.439088821411132812 18.768323898315429688 19.10497283935546875 19.448650360107421875 19.798990249633789062 20.155643463134765625 20.518283843994140625 20.886598587036132812 21.26029205322265625 21.639085769653320312 22.022714614868164062 22.4109344482421875 22.803508758544921875 23.200216293334960938 23.600847244262695312 24.005207061767578125 24.413110733032226562 24.824382781982421875 25.238859176635742188 25.656383514404296875 26.076808929443359375 26.5 26.925823211669921875 27.354158401489257812 27.784887313842773438 28.217901229858398438 28.653097152709960938 29.090375900268554688 29.529645919799804688 29.970819473266601562 30.413812637329101562 30.858549118041992188 31.100643157958984375 30.700162887573242188 30.302640914916992188 29.908193588256835938 29.51694488525390625 29.129022598266601562 28.744564056396484375 28.36370849609375 27.986604690551757812 27.6134033203125 27.244264602661132812 26.879360198974609375 26.518861770629882812 26.162950515747070312 25.811819076538085938 25.465663909912109375 25.124689102172851562 24.789110183715820312 24.459150314331054688 24.135036468505859375 23.817010879516601562 23.50531768798828125
12.5 12 11.5 11 10.5 10 9.5 9 8.5 8 7.5 7 6.5 6 5.5 5 4.5 4 3.5 3 2.5 2 1.5 1 0.5 0 0 0.5 0 0.5 0.70710676908493041992 1 0.5 0 0 0 0.5 1 1.5 2 2.5 2.6925823688507080078 2.9154758453369140625 3.0413813591003417969 2.9154758453369140625 2.6925823688507080078 2.5495097637176513672 2.5 2.5495097637176513672 2.5 2.5495097637176513672 2.6925823688507080078 2.9154758453369140625 3 3 3.0413813591003417969 3.1622776985168457031 3.3541018962860107422 3.535533905029296875 3.6400549411773681641 3.8078866004943847656 4.0311288833618164062 4.2720017433166503906 4.4721360206604003906 4.7169904708862304688 5 5.3150730133056640625 5.6568541526794433594 6.0207972526550292969 6.4031243324279785156 6.8007354736328125 7.2111024856567382812 7.6321687698364257812 7.9056940078735351562 8.077747344970703125 8.2764730453491210938 8.5 8.7464275360107421875 9.01387786865234375 9.3005380630493164062 9.604686737060546875 9.924716949462890625 10.259141921997070312 10.606601715087890625 10.965856552124023438 11.335783958435058594 11.715374946594238281 12.103718757629394531 12.5 12.9034881591796875 13.313527107238769531 13.72953033447265625 14.150971412658691406 14.577380180358886719 15.008331298828125 15.337862014770507812 15.508062362670898438 15.692355155944824219 15.890248298645019531 16.1012420654296875 16.324827194213867188 16.560495376586914062 16.807735443115234375 17.06604766845703125 17.334936141967773438 17.61391448974609375 17.902513504028320312 18.200275421142578125 18.506755828857421875 18.821529388427734375 19.144189834594726562 19.47434234619140625 19.811613082885742188 20.155643463134765625 20.50609588623046875 20.862646102905273438 21.224985122680664062 21.592823028564453125 21.965883255004882812 22.343902587890625 22.726636886596679688 23.113847732543945312 23.50531768798828125 23.900836944580078125 24.300205230712890625 24.70323944091796875 25.109758377075195312 25.51959991455078125 25.932605743408203125 26.34862518310546875 26.76751708984375 27.189151763916015625 27.6134033203125 28.040149688720703125 28.469282150268554688 28.900691986083984375 29.334280014038085938 29.76995086669921875 30.207614898681640625 30.647186279296875 31.088582992553710938 31.400636672973632812 31.004032135009765625 30.610456466674804688 30.220026016235351562 29.832868576049804688 29.449108123779296875 29.068883895874023438 28.692333221435546875 28.319604873657226562 27.950849533081054688 27.586229324340820312 27.2259063720703125 26.870058059692382812 26.518861770629882812 26.172504425048828125 25.831182479858398438 25.495098114013671875 25.164459228515625 24.83948516845703125 24.520399093627929688 24.207437515258789062 23.900836944580078125
12.509996414184570312 12.010412216186523438 11.5108642578125 11.011357307434082031 10.511898040771484375 10.012492179870605469 9.513149261474609375 9.01387786865234375 8.5146932601928710938 8.0156097412109375 7.5166482925415039062 7.0178341865539550781 6.5192022323608398438 6.0207972526550292969 5.5226802825927734375 5.0249376296997070312 4.5276927947998046875 4.0311288833618164062 3.535533905029296875 3.0413813591003417969 2.5495097637176513672 2.0615527629852294922 1.5811388492584228516 1.1180340051651000977 0.70710676908493041992 0.5 0 0.5 0 0 0.5 0.70710676908493041992 0.70710676908493041992 0.5 0 0.5 0.70710676908493041992 1.1180340051651000977 1.4142135381698608398 1.8027756214141845703 2.0615527629852294922 2.2360680103302001953 2.5 2.5495097637176513672 2.6925823688507080078 2.9154758453369140625 3.0413813591003417969 3 3.0413813591003417969 3 3.0413813591003417969 3.1622776985168457031 3.3541018962860107422 3.5 3.5 3.535533905029296875 3.6400549411773681641 3.8078866004943847656 4.0311288833618164062 4.1231055259704589844 4.2720017433166503906 4.4721360206604003906 4.7169904708862304688 4.9244289398193359375 5.1478152275085449219 5.4083271026611328125 5.7008771896362304688 6.0207972526550292969 6.3639612197875976562 6.7268118858337402344 7.1063351631164550781 7.5 7.9056940078735351562 8.3216581344604492188 8.5440034866333007812 8.73212432861328125 8.9442720413208007812 9.17877960205078125 9.4339809417724609375 9.70824432373046875 10 10.307764053344726562 10.630146026611328125 10.965856552124023438 11.313708305358886719 11.672617912292480469 12.041594505310058594 12.419742584228515625 12.806248664855957031 13.20037841796875 13.601470947265625 14.008925437927246094 14.422204971313476562 14.840822219848632812 15.264337539672851562 15.692355155944824219 15.976545333862304688 16.15549468994140625 16.347782135009765625 16.552946090698242188 16.770509719848632812 17 17.240940093994140625 17.492855072021484375 17.755281448364257812 18.0277557373046875 18.309833526611328125 18.601076126098632812 18.901058197021484375 19.20937347412109375 19.525623321533203125 19.84943389892578125 20.1804351806640625 20.518283843994140625 20.862646102905273438 21.21320343017578125 21.569654464721679688 21.931713104248046875 22.299102783203125 22.671567916870117188 23.048860549926757812 23.430749893188476562 23.817010879516601562 24.207437515258789062 24.60182952880859375 25 25.40177154541015625 25.806976318359375 26.2154541015625 26.627054214477539062 27.041635513305664062 27.4590606689453125 27.87920379638671875 28.301942825317382812 28.72716522216796875 29.154760360717773438 29.584625244140625 30.01666259765625 30.450780868530273438 30.886890411376953125 31.324911117553710938 31.705677032470703125 31.312936782836914062 30.923292160034179688 30.536863327026367188 30.153772354125976562 29.774148941040039062 29.398128509521484375 29.025850296020507812 28.657459259033203125 28.293107986450195312 27.932954788208007812 27.5771636962890625 27.2259063720703125 26.879360198974609375 26.537708282470703125 26.201145172119140625 25.869867324829101562 25.544078826904296875 25.223997116088867188 24.909837722778320312 24.60182952880859375 24.300205230712890625
12.539936065673828125 12.041594505310058594 11.54339599609375 11.045360565185546875 10.547511100769042969 10.049875259399414062 9.552486419677734375 9.055385589599609375 8.5586214065551757812 8.0622577667236328125 7.5663728713989257812 7.07106781005859375 6.576473236083984375 6.0827627182006835938 5.5901699066162109375 5.0990195274353027344 4.6097722053527832031 4.1231055259704589844 3.6400549411773681641 3.1622776985168457031 2.6925823688507080078 2.2360680103302001953 1.8027756214141845703 1.4142135381698608398 1 0.5 0 0 0 0 0 0.5 0.5 0.5 0 0.5 0.5 0.70710676908493041992 1.1180340051651000977 1.5 1.5811388492584228516 1.8027756214141845703 2 2.0615527629852294922 2.2360680103302001953 2.5 2.8284270763397216797 3.2015621662139892578 3.535533905029296875 3.5 3.535533905029296875 3.6400549411773681641 3.8078866004943847656 4 4 4.0311288833618164062 4.1231055259704589844 4.2720017433166503906 4.4721360206604003906 4.6097722053527832031 4.7434163093566894531 4.9244289398193359375 5.1478152275085449219 5.3851647377014160156 5.5901699066162109375 5.830951690673828125 6.1032776832580566406 6.4031243324279785156 6.7268118858337402344 7.07106781005859375 7.4330344200134277344 7.8102498054504394531 8.2006101608276367188 8.602325439453125 9.01387786865234375 9.1923885345458984375 9.3941469192504882812 9.6176919937133789062 9.861541748046875 10.124228477478027344 10.404326438903808594 10.700467109680175781 11.011357307434082031 11.335783958435058594 11.672617912292480469 12.020814895629882812 12.379418373107910156 12.747549057006835938 13.1244049072265625 13.509256362915039062 13.901438713073730469 14.300349235534667969 14.705441474914550781 15.116216659545898438 15.532224655151367188 15.95305633544921875 16.378339767456054688 16.620769500732421875 16.807735443115234375 17.007350921630859375 17.219175338745117188 17.4427642822265625 17.677669525146484375 17.923448562622070312 18.179658889770507812 18.445867538452148438 18.721645355224609375 19.006578445434570312 19.300258636474609375 19.602294921875 19.9123077392578125 20.229928970336914062 20.554803848266601562 20.886598587036132812 21.224985122680664062 21.569654464721679688 21.92031097412109375 22.276668548583984375 22.638462066650390625 23.005434036254882812 23.377340316772460938 23.753946304321289062 24.135036468505859375 24.520399093627929688 24.909837722778320312 25.30316162109375 25.7001953125 26.100767135620117188 26.504716873168945312 26.911893844604492188 27.322153091430664062 27.735357284545898438 28.151376724243164062 28.570089340209960938 28.9913787841796875 29.415132522583007812 29.84124755859375 30.269620895385742188 30.700162887573242188 31.132780075073242188 31.567388534545898438 32.00390625 31.626729965209960938 31.240999221801757812 30.858549118041992188 30.479501724243164062 30.103986740112304688 29.732137680053710938 29.364093780517578125 29 28.64000701904296875 28.284271240234375 27.932954788208007812 27.586229324340820312 27.244264602661132812 26.907247543334960938 26.575365066528320312 26.248809814453125 25.927783966064453125 25.612497329711914062 25.30316162109375 25 24.70323944091796875
12.589678764343261719 12.093386650085449219 11.597413063049316406 11.101801872253417969 10.606601715087890625 10.111874580383300781 9.6176919937133789062 9.1241436004638671875 8.6313381195068359375 8.1394100189208984375 7.648529052734375 7.1589107513427734375 6.6708321571350097656 6.1846585273742675781 5.7008771896362304688 5.2201533317565917969 4.7434163093566894531 4.2720017433166503906 3.8078866004943847656 3.3541018962860107422 2.9154758453369140625 2.5 2.0615527629852294922 1.5811388492584228516 1.1180340051651000977 0.70710676908493041992 0.5 0 0 0.5 0 0 0 0.5 0.5 0 0 0.5 1 1 1.1180340051651000977 1.4142135381698608398 1.5 1.5811388492584228516 1.8027756214141845703 2.1213202476501464844 2.5 2.8284270763397216797 3.2015621662139892578 3.6055512428283691406 4.0311288833618164062 4.1231055259704589844 4.2720017433166503906 4.4721360206604003906 4.5 4.5276927947998046875 4.6097722053527832031 4.7434163093566894531 4.9244289398193359375 5.0990195274353027344 5.2201533317565917969 5.3851647377014160156 5.5901699066162109375 5.830951690673828125 6.041522979736328125 6.2649822235107421875 6.5192022323608398438 6.8007354736328125 7.1063351631164550781 7.4330344200134277344 7.7781744003295898438 8.1394100189208984375 8.5146932601928710938 8.9022464752197265625 9.3005380630493164062 9.6566038131713867188 9.848857879638671875 10.062305450439453125 10.295630455017089844 10.547511100769042969 10.816654205322265625 11.101801872253417969 11.401754379272460938 11.715374946594238281 12.041594505310058594 12.379418373107910156 12.727922439575195312 13.086252212524414062 13.453623771667480469 13.829317092895507812 14.212670326232910156 14.603081703186035156 15 15.402921676635742188 15.811388015747070312 16.224981307983398438 16.643316268920898438 17.06604766845703125 17.269916534423828125 17.4642486572265625 17.670597076416015625 17.888544082641601562 18.117670059204101562 18.3575592041015625 18.607793807983398438 18.867961883544921875 19.137659072875976562 19.4164886474609375 19.704059600830078125 20 20.3039398193359375 20.615528106689453125 20.934421539306640625 21.26029205322265625 21.592823028564453125 21.931713104248046875 22.276668548583984375 22.627416610717773438 22.983690261840820312 23.345235824584960938 23.711811065673828125 24.083189010620117188 24.459150314331054688 24.83948516845703125 25.223997116088867188 25.612497329711914062 26.0048065185546875 26.4007568359375 26.8001861572265625 27.20294189453125 27.608875274658203125 28.017850875854492188 28.429737091064453125 28.844409942626953125 29.261749267578125 29.681644439697265625 30.103986740112304688 30.528675079345703125 30.955614089965820312 31.384710311889648438 31.815876007080078125 32.24903106689453125 31.945264816284179688 31.563428878784179688 31.184932708740234375 30.809900283813476562 30.438463211059570312 30.070749282836914062 29.70690155029296875 29.3470611572265625 28.9913787841796875 28.64000701904296875 28.293107986450195312 27.950849533081054688 27.6134033203125 27.28094482421875 26.953664779663085938 26.631748199462890625 26.315395355224609375 26.0048065185546875 25.7001953125 25.40177154541015625 25.109758377075195312
