NCOLS 181
NROWS 31
XLLCORNER -139
YLLCORNER 6
CELLSIZE 0.5 
NODATA_value -9999 
16.0954589540837 16.5925818880379 17.0898735505237 17.5873186958107 18.0849049196034 18.5826198567823 19.0076250720039 18.5510063369969 18.096679444605 17.6448236725409 17.195631689134 16.7493190247796 16.3061241241741 15.8663058935712 15.4301533354645 14.9979864043226 14.5701594064772 14.1470671696248 13.7291464896607 13.3168842401762 12.9108230487986 12.5115666174875 12.1197872866358 11.7362332170096 11.3617383870045 10.9972283408093 10.6423169690306 10.2135808893904 9.75024085595726 9.29070319038375 8.83555970308234 8.38552716191816 7.94147396244335 7.50446140859012 7.07579445175522 6.65708442263586 6.25033342161272 5.85803226471311 5.4832835173918 5.12993493711287 4.80271200143317 4.47386210002322 4.13785722787717 3.79099396619709 3.48157626413176 3.2204178472207 3.02007000170055 2.89320285206524 2.84965769952504 2.89320285206524 3.02007000170055 3.03031384953978 2.6518893113286 2.31994489986215 2.05711256094031 1.89244428635775 1.77479316931054 1.60116129354019 1.55356742832641 1.66249428049221 1.90115738548905 1.56687650294818 1.097673820903 0.67393825409062 0.321964932156297 0.0503423245772813 0.424264043569565 0 0.412310540676117 0.905538558959961 1.40356683731079 1.90262985229492 2.4020824432373 2.88075409638044 3.21901521444853 3.32421216566672 3.05045816396976 2.56032441712331 2.07489779299431 1.59846194287415 1.14227704625705 0.696137444274852 0.253427523994902 0.120568879535192 0.586835021051995 1.00707149967679 1.38305488917859 1.75025182739183 2.16758207933705 2.58135465473272 2.83213655477131 2.6722610109877 2.34405633714774 1.8559485397467 1.37638106560504 0.918745009966452 0.47342609461414 0.120568879535192 0.0503423245772813 0.0503423245772813 0.150342326067397 0.270234343127066 0.250342331308309 0.150342326067397 0 0.5 0.971892820738172 0.627258078295932 0.550342335829668 0.559425853093566 0.639762405078996 0.270234343127066 0.182795411832786 0.270234343127066 0.364598066522364 0.404181003871183 0.751272711120841 0.493177577481852 0.386609997681961 0.149657678402951 0.200000002980232 0.200000002980232 0.429642583955889 0.150342326067397 0.0503423245772813 0.0496576769128348 0.0496576769128348 0.392191487114208 0.585164419010161 0.56065322376098 0.182232731096291 0.120568879535192 0.200000002980232 0.404181003871183 0.120852469811446 0.0503423245772813 0.406197415211869 0.902788227447667 1.40179561695007 1.70054782449772 1.91609077526928 2.10280751929125 2.38164349206956 2.70402095221608 2.74965767649934 2.74965767649934 2.75692402693038 2.60981220754679 2.48211358961203 2.4516988712451 2.52209518366585 2.65719765696578 2.74059279410505 2.90879895126992 3.14823997698438 3.40457093683135 3.67986084282909 3.85362802148996 4.07439233623134 4.34176209047604 4.64769968003591 4.98510803733481 5.3480341331416 5.73163240874953 6.13202519500622 6.54613122242981 6.97150752194153 7.40621275715302 7.84869804171575 8.271083372852 8.68106552436717 9.10005301697656 9.5268581048182 9.96047565433844 10.4000550337522 10.8448686352613 11.2943004244331 11.7478192438493 12.2049692763624 12.6653590615182 13.1286453222678
16.0487941892293 16.5473199635618 17.0459324591718 17.5446240466647 18.0433861519838 18.5422168677805 19.0411085826847 18.762788022668 18.3137173526204 17.8673496299027 17.4238965521886 16.9835832226655 16.5466633187017 16.1134115165247 15.68413300994 15.2591606402964 14.8388663495894 14.4236578471076 14.0139876738445 13.6103569811475 13.2133170107956 12.823481938061 12.4415283813528 12.068204021335 11.7043366473144 11.3277829987237 10.8659389405928 10.4076216925579 9.95331912662315 9.50360543583686 9.05916494010031 8.62081266676931 8.18952620411573 7.76648319387677 7.34626311501998 6.90747306895254 6.44379121450403 5.98100241438773 5.52470136728722 5.0766369470216 4.63919571825239 4.21568544546368 3.81075178688185 3.43097751829736 3.08566531256041 2.78765191453462 2.5535588242823 2.40216305437463 2.34952752457748 2.40216305437463 2.5535588242823 2.75374711132102 2.33085520289627 1.9448702560446 1.62234217699179 1.40763156378596 1.35323241203528 1.47703663766614 1.74132773707246 2.06977365838174 2.2148223230625 1.77628328072623 1.38011330204874 1.02682730702889 0.716627657117378 0.541940220068194 0.200000002980232 0.0495275021495577 0.429597148994544 0.913668941108141 1.40883988222905 1.89853478467839 2.20487927703658 2.51234886100506 2.75679419524189 2.83726166692076 3.00005022044806 2.71212406268901 2.25952482987607 1.81252676173704 1.36566744079153 0.935445150676081 0.473856210114018 0.0495275021495577 0.321331713965752 0.680329560559053 1.0553680502557 1.47083721716304 1.90097265341508 2.23851894128222 2.34952752457748 2.20020302730564 2.07138004250121 1.79999995231628 1.29999995231628 0.800000011920929 0.300000011920929 0.120906389950221 0.493296430777187 0.550472510622041 0.650472504379945 0.757134608790393 0.532532333165731 0.182125746386524 0.120514959396417 0.524073998127962 1.01232567265384 1.09255734686144 1.05047251062204 1.05523213301451 0.961345990603714 0.716627657117378 0.658158481348767 0.757134608790393 0.850743228868389 0.873747665978955 1.10195962799352 0.953717482180701 0.533153058260356 0.182902396542554 0.0495275021495577 0.0504724993405584 0.0495275021495577 0.0495275021495577 0.386188282850777 0.35850970758714 0 0.0495275021495577 0.149527503639674 0.403474891169203 0.182902396542554 0.150472500830675 0.462489873109873 0.781024992465973 0.559553911613123 0.550472510622041 0.681093097407561 0.970416830149139 1.06845480745808 1.2618549324542 1.43927978353833 1.67991394044915 2.01169266002963 2.25175014748325 2.24952750186215 2.24952750186215 2.25840496681861 2.14734642209417 1.99016544757178 1.95209224286977 2.03982195394837 2.15881674839138 2.26068749653802 2.46192254492508 2.7277588302235 2.981777631155 3.20933958455937 3.39854447043242 3.64696723762174 3.94342764316289 4.27794889523285 4.6423096751188 5.03002962800019 5.43611386662044 5.8567433327396 6.28900073026923 6.73064683907814 7.17007463630239 7.57364315266617 7.98812552264307 8.41190938672102 8.84365778363039 9.28225977291451 9.72678702021783 10.1764647687985 10.6306383798176 11.0887557389313 11.5503477194857 12.0150142956599 12.4824107547434 12.9522434281321
16.0176176154504 16.5170853736387 17.0165826382553 17.5161094093004 18.0156628602362 18.5152400955544 19.0148382887175 18.9853858310886 18.5417078168385 18.1009626384884 17.6633743980075 17.2291844324734 16.7986540026683 16.3720711642163 15.9497554095083 15.5320524627267 15.1193461950264 14.7120552694324 14.3106436542471 13.9156187386921 13.5275422139497 13.1470282577746 12.774751577503 12.4114550969226 11.9820833447311 11.5247688001585 11.0711456648954 10.6216865707785 10.1570612516124 9.67846460931826 9.1881811691052 8.69900284179973 8.21112930147277 7.72480598131981 7.24034598518002 6.75814916102258 6.27873831183298 5.80280235799719 5.33127256802398 4.86542985265306 4.40707729944082 3.95881600868743 3.52449733612246 3.10996555820956 2.72426466386337 2.38144128206618 2.10257850280344 1.91583944911491 1.84939729074373 1.91583944911491 2.10257850280344 2.38144128206618 2.08172010949989 1.63807894629577 1.23806222804106 0.939111325983242 0.855283636144376 1.04034052276333 1.37937303419915 1.7757081695158 2.21436110927 2.08699312496487 1.73355308990572 1.40167841810052 1.01248497446534 0.524381653428305 0.120960310088995 0.262263805055737 0.533238564061876 0.967002719958932 1.25359967478518 1.51875043473906 1.80609441348065 2.15561941696128 2.25827530365605 2.35584553851006 2.54957692306862 2.8196979222702 2.48311300887349 2.04342040584471 1.56695127880038 1.09778056702289 0.674112152825156 0.322167256062099 0.0493973273862841 0.386120910345491 0.783632458004449 1.23038119859197 1.60024630336897 1.7919995673183 1.84939729074373 1.72357819638599 1.57820220128381 1.54939733842745 1.14182196981937 0.71743290627964 0.252867746406129 0.200000002980232 0.699999988079071 1.05060268541441 1.09778056702289 0.743620395342493 0.300000011920929 0.120960310088995 0.183009381252318 0.561074491511002 1.0320632823732 1.52158918318888 1.55060268541441 1.55382723726261 1.38725467691762 1.18913669565244 1.15494818129989 1.1673264623443 0.900973581243712 0.849397320905275 0.81436971664067 0.558496218668135 0.449397329666361 0.586052140531251 0.364848217573093 0.270475481377278 0.252867746406129 0 0.249397334046904 0.249397334046904 0.249397334046904 0.252867746406129 0.1493973288764 0.050602674103832 0.400000005960464 0.32991261268912 0.1493973288764 0.449397329666361 0.363690086994245 0.349397335626825 0.363690086994245 0.492314767921805 0.584919849100402 0.849397320905275 0.98596130048284 1.30863996119924 1.60061550090366 1.75225545798333 1.74939732722496 1.74939732722496 1.76080192654697 1.70629657322563 1.5036388204875 1.45284699219595 1.56879519174435 1.66148962705281 1.79189654428083 2.03994533746065 2.28928740575679 2.5867411538933 2.73856895956303 2.95805175009409 3.24042894399594 3.57080556239717 3.93711541803515 4.3302494415095 4.74354343716277 5.17216749289054 5.61261167380297 6.06230038730533 6.46988985157346 6.87819580461919 7.297922018264 7.72720804059528 8.16454507273572 8.6087082752095 9.05869238343086 9.51367165338276 9.97296289811586 10.4359964064294 10.9022949620362 11.3714585732785 11.8431454341271 12.3170661676498 12.7929714397409
16.0020189246635 16.5019582249785 17.0019013399907 17.5018463343957 18.0017941758456 18.5017458040369 19.0017012469254 19.2184246563282 18.7802509283476 18.3452389522191 17.9136204847797 17.4856435093074 17.0615855590064 16.6417451199598 16.2264483767396 15.8160539388448 15.4109542502456 15.0115784643843 14.6183939096319 14.2319136348148 13.8527003217575 13.4813671830456 13.0699268511702 12.5727081190406 12.075718970818 11.57898894245 11.0825528081043 10.5864529713431 10.0907375298185 9.59546602527444 9.10071278839569 8.60656496156948 8.11313451067121 7.62056076030647 7.12902043534738 6.63874386640692 6.15003259087992 5.66329224072897 5.17907805597163 4.69817132968197 4.2217018922394 3.75135943834517 3.28977220990344 2.8412069483342 2.41293169382078 2.01789572172713 1.67970476781122 1.43903565899635 1.34926711595136 1.43903565899635 1.67970476781122 2.01789572172713 1.900856253522 1.44372443365804 0.966519227135157 0.532361321562691 0.363565011468882 0.673220100135305 1.09723298878069 1.56656769924031 2.05041943962207 2.4405489078425 2.09067812910646 1.63571332298539 1.1938221201598 0.745040150094588 0.322268418014998 0.0492671526230105 0.338066585990584 0.626314881965883 0.820048291287654 1.10102957241227 1.44987965432635 1.69712133610256 1.76067259422904 1.88421886003339 2.12149374206324 2.43949769822135 2.65992697427087 2.21493400454009 1.7764225421074 1.38029255559361 1.02701753167344 0.674199102192423 0.291547090884736 0.120407119118869 0.560479132990689 0.955453688100556 1.12306670966215 1.34573902601288 1.34926711595136 1.25348031063594 1.09139846874304 1.04926716363508 0.898247008821721 0.504878404225017 0.0492671526230105 0.253658854571752 0.717712086931046 1.21044681893543 1.00245718848792 0.504878404225017 0.0492671526230105 0.170281382850779 0.573907588188684 0.885779373800526 1.25107969741575 1.67797497483163 2.05073279972851 2.05317095166419 1.83450124037814 1.67779580681012 1.34696636392708 0.874120422549428 0.461576992258638 0.349267160873251 0.532361321562691 0.120407119118869 0 0.5 0.850972860801694 0.505023536597584 0.0507328488671056 0.150732850357222 0.150732850357222 0.25073285562723 0.183116365962083 0.150732850357222 0.242028460455537 0.350732857008143 0.300000011920929 0.0492671526230105 0.150732850357222 0 0 0.0507328488671056 0.0507328488671056 0.0492671526230105 0.181911776966994 0.349267160873251 0.602452009468098 0.901205847595674 1.20895725869744 1.25326943890458 1.24926715258777 1.24926715258777 1.26519992985001 1.30854549310842 1.03028406938311 0.954534209081494 1.12330845146817 1.16657125966189 1.34591647738961 1.6096112480821 1.88185860172709 2.10941607900745 2.28034568001262 2.53975737786252 2.86368906433556 3.23279919982735 3.63334558140886 4.05602707779784 4.49460533496099 4.94485253517038 5.37206848931814 5.77141665328938 6.18541487808931 6.61131205094055 7.04695149598981 7.49063381722951 7.94101007998539 8.39700502615608 8.85774934935861 9.32254112004155 9.79080159767453 10.2620574437061 10.735913962771 11.2120408115533 11.690161508369 12.121660979192 12.5453069638949
16.0020438540598 16.5019824238431 17.0019248083236 17.5018691330744 18.0018163353091 18.5017673851627 19.0017222497136 19.4615266038058 19.0289515860587 18.5997576894412 18.1741833983759 17.7524909239171 17.3349616822925 16.921904631059 16.513654559284 16.1105795523321 15.7130744807528 15.3215746721803 14.9365531655363 14.5234051474566 14.0258156346287 13.5267707291156 13.0277986068488 12.5289073987511 12.0301089845995 11.5314143069572 11.0328381395458 10.5343966289852 10.0361107396495 9.53800331033974 9.04010621507168 8.54245325167057 8.04509198862622 7.54807958055422 7.05148879423992 6.55541673985506 6.05999023524383 5.56538180877419 5.07183036356519 4.5796773841893 4.0894283416702 3.60185976373714 3.11822828238756 2.64069568622918 2.17328106639018 1.72421740922415 1.31243494573227 0.985736970443357 0.849136971475712 0.985736970443357 1.31243494573227 1.72421740922415 1.73617228238159 1.25067990020233 0.783516215929844 0.379937140707411 0.0508630236303827 0.505036426425418 1.00253678220622 1.50169355284196 2.00127075580759 2.50101694419338 2.30789173534439 1.85900178916954 1.41618957985929 1.02711264399572 0.674286051559693 0.253735964764037 0 0.14913697934985 0.403136468769311 0.743427949600754 1.06807119497152 1.21687547952267 1.2650713925213 1.43211041158058 1.73249596410943 2.01496801102452 2.26031616782222 2.40858664265335 2.08717404669914 1.73374086564826 1.36951036256815 0.908428383300431 0.430063286710719 0.0508630236303827 0.252713526021562 0.549136988842704 0.680014025562379 0.90109758699259 0.849136971475712 0.819945183062073 0.626200685944958 0.549136988842704 0.455398490247353 0.240706397960188 0.0508630236303827 0.505036426425418 0.953963244419125 1.1416965949122 0.743427949600754 0.403136468769311 0.100000001490116 0.212007131041606 0.689276722299703 1.12891364763231 1.56860695803452 1.95349273200837 2.01487010107294 1.87333170787067 1.85992919387035 1.80699801348065 1.30966636365974 0.815582184699145 0.338773993282623 0.0508630236303827 0.308253937117265 0.404632233737708 0.450863025801257 0.674286051559693 0.938875817367876 0.70710676908493 0.550863034999154 0.627714862379627 0.650863028524288 0.716982085057339 0.658544438533697 0.650863028524288 0.63645178740381 0.549136988842704 0.462785640411457 0.249136984500956 0 0.424014262083212 0.365098368623821 0.550863034999154 0.493652990663185 0.350863031761721 0.0508630236303827 0 0.240706397960188 0.532275815761168 0.814193972655901 0.755810853172207 0.749136976921775 0.749136976921775 0.775482279719836 0.872447757912072 0.60235486389452 0.460264004644537 0.715415578535953 0.679408604244527 0.955365175678625 1.17972094947151 1.53048948690365 1.62790082203814 1.84406081160441 2.15662566450129 2.53009626728073 2.94136555126283 3.3766548838706 3.82778211930904 4.27961117595833 4.67002682602898 5.07536138626931 5.49630884746534 5.92954475909072 6.37256461268868 6.82346276612102 7.28077581490729 7.74336761685663 8.21034563595305 8.68100301898633 9.15477159828543 9.63119146467508 10.1098903647128 10.5859867733202 11.0106222978902 11.4317041396883 11.8589166181613 12.2916212895062
16.0176923427618 16.5171578180383 17.0166529519374 17.5161777444589 18.0157292777488 18.5153047476153 19.0149012362043 19.5145197161337 19.2874174750502 18.864104635209 18.4446307323099 18.0292638056671 17.6182956796213 17.2120391593483 16.8108375676021 16.4150600331743 15.9979106394805 15.5040087519455 15.0041434348925 14.5042856904029 14.0044383794994 13.5046029042781 13.0047797889354 12.5049708839888 12.0051780967868 11.5054028673129 11.0056485050115 10.5059173656527 10.0062137312992 9.50653997666486 9.00690320694771 8.50730863894086 8.00776479888195 7.50828213930098 7.00887250535192 6.50955414633886 6.01034913573502 5.51128803536374 5.01241401008152 4.51378893194236 4.01550553480935 3.51770950521455 3.02064081090591 2.5247291410045 2.03082015913732 1.54083606718398 1.0602040173858 0.6111355327989 0.349006811366094 0.6111355327989 1.0602040173858 1.54083606718398 1.70149854816779 1.20212108451347 0.703623962962791 0.212037861126871 0.200000002980232 0.699999988079071 1.14259048352496 1.59868591242955 2.07507033033112 2.56046423932647 2.53118029294059 2.111067605391 1.73383475351953 1.36591531231965 0.956627314137409 0.603740106347942 0.404745041204341 0.242244141010638 0.0490068030964563 0.391776822368461 0.584552994235762 0.755681825240641 0.77535651779273 1.02575639458761 1.343735762234 1.60031061050708 1.79153705567499 1.94398142067245 2.13509393735808 2.00898707803546 1.54461920269834 1.11150154981163 0.744800034821021 0.308275061554663 0 0.0490068030964563 0.24900680972798 0.540722296964843 0.349006811366094 0.349006811366094 0.149006804586572 0.0490068030964563 0.0490068030964563 0.0490068030964563 0.406033005378787 0.744800034821021 1.14259048352496 0.874016212853309 0.461379814057578 0.0490068030964563 0.0490068030964563 0.0490068030964563 0.50485262456935 1.00244420361209 1.5016317474805 1.87377222252932 1.56858830259249 1.38200474999617 1.36377162045127 1.51998334785022 1.45457616007703 1.00766817403936 0.603740106347942 0.462075516226408 0.627829058400552 0.87425447991588 0.902478215088329 0.966424973969207 0.532190309959646 0.268997370211176 0.24900680972798 0.24900680972798 0.36331486041815 0.558112043109467 0.78345809489254 0.403023661302678 0.337951179950426 0.0490068030964563 0.149006804586572 0.0509931983936598 0.0490068030964563 0.0490068030964563 0.50485262456935 0.46013696527231 0.349006811366094 0.403023661302678 0.24900680972798 0.200000002980232 0.183330335381618 0.120299278841319 0.595435622800614 0.268997370211176 0.24900680972798 0.24900680972798 0.320927066154149 0.403023661302678 0.24900680972798 0.0490068030964563 0.337951179950426 0.252636415829277 0.491958208035804 0.832692760532124 1.04900681405033 1.16227275855278 1.44969117872017 1.83087222040032 2.25884365551862 2.71155658163227 3.17846536261326 3.57900195844539 3.96981808115915 4.3828772725908 4.81245636721559 5.25450589157635 5.70612895237328 6.16522270072334 6.63023509785018 7.10000425884931 7.5736442738684 8.05047321516823 8.52995594507937 9.01166813847636 9.48477400160291 9.90117097666045 10.3190726243271 10.7439895194679 11.1751225587808 11.6117784968127 12.0533585397553
16.0489184709452 16.5474405013024 17.0460494660089 17.54473773567 18.0434967057903 18.5423244690212 19.0412133531148 19.5401586111262 19.5552592616152 19.1378732039713 18.7245321290626 18.3155145526425 17.911115095795 17.4906447967016 17.0001501655454 16.5001550410502 16.0001599165549 15.5001647920596 15.0001701551148 14.5001764932709 14.0001823438766 13.5001896571337 13.0001964828403 12.5002042836479 12.0002130595564 11.5002223230153 11.0002325615752 10.5002432876856 10.0002554764474 9.50026912786066 9.00028375437483 8.50030081864136 8.0003193455593 7.50034079778008 7.00036517530369 6.50039320945584 6.00042587533748 5.50046463560002 5.00051119667012 4.50056799630013 4.00063893489383 3.50073010683214 3.00085187256257 2.50102214956499 2.00127726034958 1.50170222152992 1.00254976708206 0.505062206081083 0.0511233731569227 0.505062206081083 1.00254976708206 1.50170222152992 1.78773572772293 1.32128811235976 0.89178685952982 0.542481064913439 0.493890697253842 0.833835851329501 1.28284968292044 1.75950205311588 2.24631047065045 2.71237606480923 2.81211016193609 2.44082899513371 2.05348480241644 1.66324617256711 1.30989255613014 1.03199452296998 0.851317308701649 0.612346575759179 0.253890185148598 0.0488766283331934 0.14887662982331 0.268876801086081 0.320825904201258 0.668942536996275 0.900881065786435 1.16215524896461 1.31145923142466 1.47644191806269 1.64887666309983 1.72307989223229 1.8128919766117 1.41274795924907 0.972334908926847 0.60383725192151 0.404857848670962 0.393125266512153 0.121175990644088 0.0488766283331934 0.0511233731569227 0.121175990644088 0.183437320091374 0.322571903873693 0.151123374647039 0.253890185148598 0.533580587267954 0.967191226290826 1.30969618467878 0.815630076787071 0.338889399322775 0.121175990644088 0.100000001490116 0.183437320091374 0.561306612538052 1.03218943100988 1.52167474035511 1.5531717352961 1.1669474521983 0.900482650952655 0.87219435094362 1.10072824061282 1.47046114520288 1.30989255613014 1.03199452296998 0.956380200314718 1.09318312815128 1.32127932355489 1.36782274800772 0.899999976158142 0.400000005960464 0.0488766283331934 0.212068591212134 0.151123374647039 0.0511233731569227 0.120245358702549 0.532104804158133 0.253890185148598 0.253890185148598 0.0511233731569227 0.0488766283331934 0.0488766283331934 0.0488766283331934 0.0488766283331934 0.181590822837704 0.121175990644088 0.0511233731569227 0.0488766283331934 0.183437320091374 0.151123374647039 0 0.212068591212134 0.181590822837704 0.0511233731569227 0.200000002980232 0.151123374647039 0.0488766283331934 0 0.0511233731569227 0.253890185148598 0.462982818612506 0.0511233731569227 0.212068591212134 0.61106105039286 0.548876639257971 0.743235503859022 1.14157122000504 1.59795758807008 2.07450925788939 2.51186964838663 2.87398833531466 3.27262067278266 3.6959731355996 4.13646505721411 4.58916515331899 5.05079277044809 5.51910894349862 5.9925459628958 6.4699799554083 6.95058749543677 7.43375359686885 7.91900904648954 8.38799141673722 8.7939086866507 9.2077631995241 9.62979585045675 10.058977753421 10.4944302582341 10.9354067236126 11.3812635908062 11.8314497431929
16.0956324858158 16.5927501842924 17.0900369461276 17.5874774647134 18.0850593661932 18.5827701332533 19.0806012545534 19.5785441231151 19.8320990002266 19.420662580042 18.9967694465876 18.5082789044661 18.0085088383206 17.5087511938508 17.0090089038082 16.5092819203736 16.0095712211309 15.5098801798046 15.0102092373674 14.5105608138695 14.0109377703338 13.5113425268103 13.0117774555301 12.512249256123 12.0127589061727 11.513313105309 11.0139175755778 10.5145790644279 10.0153071325118 9.51611087560001 9.01700418174374 8.51800287025257 8.01912513266706 7.52039659334535 7.02184935578889 6.52352364168558 6.02547572447403 5.52778032548412 5.03054162901067 4.53391023991945 4.03811005389464 3.54348972664158 3.05062245905438 2.56052016820774 2.07513934526584 1.5987755002517 1.14271585843213 0.744992480562752 0.55125355937626 0.744992480562752 1.14271585843213 1.5987755002517 1.99923557732286 1.59579122975843 1.2433507117998 0.997552188788948 0.972105756048848 1.18142436712036 1.53180281828767 1.94853477619204 2.3972878449146 2.86305888888681 3.14791419795557 2.75104303675777 2.37021624107799 2.01676538474333 1.70787350280257 1.50542813338738 1.30614523605969 0.956804338981261 0.62805745044239 0.451253550061978 0.271078327002802 0.151253549410316 0.0512535479201999 0.240382877127549 0.53201929835661 0.679035436873663 0.849220832294281 1.03980898408716 1.14874648830746 1.253002854039 1.50301140747565 1.65253034427675 1.30998702422096 1.03211447525297 0.874507886884333 0.806142666675729 0.463081407713036 0.404970656137595 0.462329594970847 0.560322262730445 0.658930395718621 0.764734964279248 0.651253552668624 0.681431102986108 0.940790437651111 1.23933620269898 1.40875672632445 0.913540725002883 0.429324539226477 0 0.181483838127936 0.560247011963637 0.886161704186544 1.22899764991696 1.25275040140691 1.34683108261302 0.873912003157196 0.461182635856529 0.402798046369425 0.78334185281794 1.25057063395262 1.69607602113059 1.50542813338738 1.45469880969808 1.57051024350318 1.74554103484479 1.47169782528001 1.0077844910661 0.603934397495088 0.393208199461303 0.151253549410316 0 0.151253549410316 0.151253549410316 0.430199591594751 0.681431102986108 0.62805745044239 0.463081407713036 0.251253554719119 0.451253550061978 0.351253556022442 0.451253550061978 0.121229910782863 0.0512535479201999 0.463081407713036 0.451253550061978 0.603934397495088 0.612421058165227 0.351253556022442 0.463081407713036 0.271078327002802 0.183544304801141 0.183544304801141 0.151253549410316 0.271078327002802 0.351253556022442 0 0.308317310429456 0.504826844913684 0.0487464535699163 0.151253549410316 0.406000954960417 0.0487464535699163 0.504826844913684 1.00243121873625 1.48956940905785 1.80560802687194 2.1704029617855 2.58087813728761 3.01846251717346 3.47292935669338 3.93844162542468 4.41150574028694 4.88993085451567 5.37228604831239 5.85760052114668 6.34519515867265 6.83458244474477 7.29264162024701 7.68977983539849 8.09832149547679 8.51662427237018 8.94331866054998 9.37725997723022 9.81748757485846 10.2631915103338 10.7136896090042 11.1684007856952 11.626831180568
16.1576967726464 16.6529636819089 17.1485036587348 17.6442966495709 18.1403198190184 18.6365548625187 19.1329866796369 19.6296008332963 20.0276785631476 19.5283871096765 19.029132928681 18.5299188547916 18.0307488610599 17.5316246964802 17.0325540960167 16.5335379869511 16.0345850315297 15.5356975215648 15.0368841193024 14.5381529705628 14.0395116783481 13.5409703486122 13.0425413263362 12.5442375784969 12.046073410209 11.548068437777 11.050243721213 10.5526241088342 10.0552411246777 9.5581311139371 9.06133903126739 8.56492078538183 8.06894427190369 7.57349697636834 7.07869003393717 6.58466732889222 6.0916198261433 5.59980518753251 5.10957925628287 4.62144749514153 4.13615094903025 3.65481890462818 3.17925049393029 2.71247686565732 2.2599483159685 1.83223495684178 1.45141190917792 1.16441841900783 1.05138373416863 1.16441841900783 1.45141190917792 1.83223495684178 2.2599483159685 1.94875047559016 1.65743722821909 1.48209893546501 1.46511477324264 1.61151715593496 1.88348896162287 2.235611983624 2.63595449729302 3.06568983138584 3.45253231148911 3.07729259623749 2.72380530339374 2.4018218933409 2.1490317162897 1.96923025937071 1.6634262671898 1.32148635935861 1.07502272898418 0.940908191958795 0.75803780431134 0.651383727383407 0.393291132410453 0.151383724173593 0.0486162788066391 0.240275036849998 0.362939633842065 0.55772786755081 0.648616284537522 0.819532750159758 1.0296843079682 1.28420358639436 1.38162353690909 1.40675792927928 1.15990501436577 0.900237185807118 0.829646454760889 0.860490053112194 0.956639115101411 1.05613924288366 1.12504437080052 1.21899732903387 1.15138375801049 1.16865647251093 1.34772411114734 1.62388641927507 1.40173405129492 0.902692628974887 0.405984929751232 0 0.051383722683477 0.505087985736751 0.900237185807118 0.806704409869163 0.755294741445954 0.959897293155919 0.815677968875 0.339004805362932 0.254044405533168 0.717848147173167 1.2105274817116 1.70745304694369 1.99198378117682 1.95394602311422 2.04159604729737 2.12535403944524 1.69317509932563 1.31008149231177 1.03223442753595 0.764845763245858 0.586785850260521 0.451383724815556 0.586785850260521 0.651383727383407 0.764845763245858 1.11173004582435 1.09343344066723 0.85154694063496 0.751383722247705 0.85154694063496 0.851383715462478 0.745258624323778 0.322774227779498 0.393291132410453 0.745088703433623 0.951383710326776 1.03223442753595 0.987672876998274 0.851383715462478 0.85154694063496 0.75803780431134 0.6590590481136 0.6590590481136 0.651383727383407 0.75803780431134 0.604031543068666 0.451383724815556 0.604031543068666 0.612495540571275 0.35138373077602 0.051383722683477 0.307889340945295 0.0486162788066391 0.429279104265131 0.871940943975154 1.10052735274651 1.47031071641882 1.9005652537893 2.35845774493007 2.83062218788903 3.31096391724586 3.79638294488954 4.28515454627565 4.77625041428447 5.26902098029862 5.7630369667881 6.20344507879287 6.59036037911126 6.99163424229532 7.40493394708963 7.82835381290448 8.26033848181814 8.69961221471547 9.145124405601 9.59600703752225 10.0515364828123 10.5111093295529 10.9742179441134 11.4404314768422
16.2349394782335 16.7279185919853 17.2213034504509 17.7150568314566 18.2091538817197 18.7035621763134 19.1982625840008 19.6932293844506 20.0601517256822 19.5616882370129 19.063306879836 18.5650115265992 18.0668117717964 17.5687122971733 17.0707255871218 16.5728601958355 16.0751247930091 15.5775379608541 15.0801088025895 14.5828549467525 14.0857965071295 13.5889540310314 13.0923508979166 12.5960172207141 12.099985453226 11.6042948116006 11.1089892514821 10.6141246061311 10.1197649449784 9.6259871687453 9.13288632684042 8.64057948980743 8.14920849484697 7.65895464094521 7.17004698299236 6.68278069723207 6.19754294596916 5.71485002755497 5.23540594053457 4.76019210122065 4.29061392039052 3.82874453194458 3.3777458471384 2.94261791119819 2.53155212415903 2.15833350532701 1.84605791402078 1.63016285470415 1.55151390896101 1.63016285470415 1.84605791402078 2.15833350532701 2.53155212415903 2.34503208142958 2.10920985770372 1.9744529387196 1.96174212096561 2.07332865060754 2.29108988219983 2.58833643950743 2.94105517361015 3.33167336433232 3.74836337657151 3.4309098137766 3.10175095730014 2.82321355707954 2.61155454297277 2.37039754641823 2.02440786319406 1.74577236662429 1.53530395979331 1.38807606652593 1.25353065071742 1.09822754625854 0.809394067207087 0.542805571820596 0.365723746250638 0.242675502120828 0.048486104043362 0.120083598286224 0.148486105533478 0.459628807783418 0.601869136026641 0.806583577713263 0.900114453234349 0.938287045829467 0.742946835246409 0.460985457655469 0.362814558316699 0.459628807783418 0.656195316554562 0.884129670751058 1.24123457567922 1.5393410662848 1.65151393280287 1.66359080385985 1.79384490662354 1.50070177611329 1.09615786309663 0.742946835246409 0.337720367870117 0 0.5 0.688414223438615 0.454827742525401 0.348486112351795 0.268515093710757 0.651057137747401 0.774853470084318 0.717572798290605 0.68167988123336 0.956981363825122 1.36616318384777 1.82116716913024 2.22690319171649 2.45355354988119 2.5238981052075 2.39133255152917 2.01695265242521 1.70809467957617 1.46182545209015 1.21912026745345 1.07040604598303 0.951513885119149 1.03235437981894 1.15151393280287 1.21912026745345 1.46182545209015 1.54179778297362 1.3139708626618 1.25151389523537 1.3139708626618 1.35151386127729 1.02758820560711 0.777778623345248 0.809394067207087 1.09822754625854 1.44461454461844 1.50567909859213 1.44114238666483 1.35151386127729 1.3139708626618 1.25550901434511 1.15585597334212 1.15585597334212 1.15151393280287 1.21912026745345 1.03235437981894 0.951513885119149 1.03235437981894 0.975125197416996 0.681934524065354 0.365723746250638 0 0.242675502120828 0.320522418342551 0.402572431436159 0.783225610743333 1.25049778978614 1.73604108355371 2.22797634588501 2.72284754351647 3.21930281958395 3.71670796188536 4.21472685570399 4.71316515964039 5.12670040306544 5.49847367399722 5.88925671346352 6.29551098510152 6.71442869807709 7.14378283457969 7.58180073042232 8.02706432925213 8.4784320536422 8.93497927263492 9.39595105155045 9.86072591236263 10.328792483116 10.7997219279962 11.2731543937631
16.3271428904271 16.8174182459228 17.308253019015 17.7995946635418 18.2914069398792 18.7836525606544 19.2762972563082 19.76931038383 20.1050165024933 19.6076957923043 19.1105126620823 18.6134823706163 18.116613469617 17.6199231879384 17.1234258620535 16.6271367507513 16.1310788049318 15.6352710980812 15.1397384884483 14.6445110638111 14.1496179269154 13.6550968262922 13.160990740002 12.667346953319 12.1742217957442 11.6816802425637 11.1898010503041 10.6986754673327 10.2084104619636 9.71913733688537 9.23101412902551 8.7442323479871 8.25903026477292 7.77570369549827 7.29462456668201 6.8162686972344 6.34125219026474 5.87038644182451 5.40475531013157 4.94583788222704 4.49568937880003 4.05722830423139 3.63468653383382 3.23430624687762 2.8653902974185 2.5416754933845 2.28248187938142 2.11172526976226 2.05164402218885 2.11172526976226 2.28248187938142 2.5416754933845 2.8653902974185 2.77508690840717 2.57891440665184 2.46993842082524 2.459791746094 2.54965622662292 2.72965958328482 2.98351650408088 3.2941877855725 3.64718070460949 4.03139347799003 3.80436550071465 3.51040391759579 3.2669041552973 3.07508759605566 2.72952946589172 2.42898324409366 2.19304242345166 2.01471305298988 1.8516262145889 1.72572831029788 1.48571160397033 1.24364932763175 0.997924543557617 0.851776572568272 0.628400038505165 0.451644074322713 0.351644080283177 0.183865258930444 0.0483559292800849 0.240059356294897 0.348355937598216 0.460886868554939 0.459501768411192 0.320421256389649 0.0483559292800849 0 0.0483559292800849 0.181162883998633 0.540181452119592 0.848876384394314 1.15968078705571 1.44921998970473 1.83049906117642 1.81772684437137 1.32442024986553 0.839021116814262 0.39136215762272 0.0483559292800849 0.263059362557406 0.320421256389649 0.337662664850038 0.100000001490116 0.151644073700147 0.211415286499592 0.320421256389649 0.320421256389649 0.448355931637752 0.672611454564429 0.938169291521783 1.17909236081289 1.51998597631033 1.87610834598362 2.27379325129008 2.70561576820437 2.64603911890704 2.40203336575249 2.14926809205318 1.88109040238719 1.69943129190478 1.53542701661554 1.45164405991152 1.5058045811945 1.65164410759524 1.69943129190478 1.88109040238719 1.96946176929732 1.79676961617566 1.75164406987257 1.79676961617566 1.73430419287586 1.43429754936754 1.26754695078228 1.28714765296867 1.48571160397033 1.80496848653886 1.99223881676367 1.91800832471796 1.85164403606966 1.79676961617566 1.75449853935587 1.65467139343113 1.65467139343113 1.65164410759524 1.69943129190478 1.5058045811945 1.22991577902892 0.813666740701593 0.557471750511696 0.679382955569033 0.674807747763299 0.451644074322713 0 0.0516440722100312 0.212191511553196 0.703670219138855 1.20214815728748 1.701517674929 2.2011730982509 2.70095614484485 3.20080678929348 3.69370864516658 4.06502169579966 4.41970385324304 4.7941589227226 5.18980817459463 5.60216316097531 6.02779658941416 6.46408694846988 6.90901474145296 7.36101461986934 7.81886155584416 8.28158439809157 8.74840929615559 9.21871440088015 9.69199230402708 10.1678294245248 10.6458803533363 11.1258606225063
16.4340558449089 16.9212353699993 17.4091412842246 17.8977153796106 18.38690326288 18.8766580347861 19.3669359616745 19.8576987612084 20.1621926651156 19.6663162484299 19.1706547130349 18.6752252927505 18.180044166199 17.6851351413972 17.1905202543776 16.6962271955364 16.2022827354366 15.7087230460201 15.2155836162829 14.722906340213 14.2307404166401 13.739139846607 13.2481681002172 12.7578977244009 12.2684123179456 11.7798106707457 11.292206405409 10.8057346868182 10.3205568212971 9.8368633206797 9.35488429120476 8.87489995777422 8.39725066061302 7.92236005801365 7.45075513657627 6.98310225471546 6.52025048408007 6.06330016258936 5.61369153538285 5.17333930750159 4.74482112300076 4.3316490475689 3.93865476141998 3.57250277756447 3.24229915054925 2.96010042237263 2.74078176001171 2.60031619547414 2.55177419682603 2.60031619547414 2.74078176001171 2.96010042237263 3.24229915054925 3.22542660209231 3.05829078080169 2.96698451550567 2.95854405649619 3.03366186858111 3.18642845301059 3.40640475582001 3.68155748834844 4.00051363475889 4.35365602078137 4.20423145309511 3.94021903004782 3.72492957571768 3.43550174531242 3.12288043531968 2.86392514320435 2.64793377759656 2.50225827430809 2.33037610719201 2.18165093618222 1.92591403146765 1.65777912634976 1.47908954432335 1.31421880929723 1.07536822947284 0.951774234703882 0.809635731518873 0.587152705125151 0.405421886004114 0.251774253811008 0.15177424846341 0.048225754516822 0.048225754516822 0.15177424846341 0.271560603503221 0.451774249076277 0.323077713638193 0.121445591337958 0.181055899288878 0.47267023420064 0.742754389504677 1.14125778273712 1.51989611925017 1.79556799355573 1.30977073722637 0.81574980700689 0.339177914423163 0.0517742469732942 0.048225754516822 0.15177424846341 0.0517742469732942 0.0517742469732942 0.0517742469732942 0.15177424846341 0.15177424846341 0.0517742469732942 0.0517742469732942 0.268273955460554 0.49124508826382 0.813578868709217 1.17103224565552 1.5880120907548 2.01719918267139 2.25944973415202 2.15752060092861 2.16908304937074 2.29241744305856 2.33248884920127 2.16795725459976 2.01483914607196 1.95177423470388 1.99236633455708 2.14823867296923 2.18865623997583 2.33248884920127 2.42504245509125 2.28704269001906 2.25177424450975 2.28704269001906 2.12356122767331 1.88654652300342 1.76316346354539 1.77729687785081 1.92591403146765 2.18165093618222 2.48420249382673 2.40436058541432 2.35177427258174 2.28704269001906 2.23390083885271 2.15409783923838 2.15409783923838 2.15177422489802 2.10114751159825 1.60150561841276 1.10218755979273 0.603991295317643 0.119975758008679 0.405936854123677 0.902670999464057 0.524716893388384 0.121445591337958 0.121445591337958 0.430381331440129 0.89218859134637 1.32155914114983 1.78793600898901 2.26865708335807 2.71829814718125 3.02078661977473 3.35789188923775 3.71278513938737 4.09084117669169 4.49278835954307 4.91276695841487 5.34653002243088 5.79098165870287 6.24384001304517 6.70340095486152 7.16837739994324 7.63777939438422 8.11083902118877 8.58695130630507 9.06563589245577 9.54650599396114 10.0292463168741 10.5136010872898 10.9993555054577
16.5553919507249 17.0391035864436 17.5237277339357 18.0091936760059 18.4954336654538 18.9823885744718 19.4700049246502 19.9582331249247 20.2315741070422 19.7374406741837 19.2436108729974 18.7501075916667 18.2569585957187 17.764192422735 17.2718426329364 16.7799444033008 16.2885398407939 15.7976751804581 15.3074006173287 14.8177767278869 14.3288689296331 13.8407550378341 13.3535195434767 12.8672641400095 12.3821023873239 11.8981699251166 11.4156222749491 10.9346428328817 10.4554486869551 9.97829574880173 9.50349227316945 9.03140776790608 8.56249414287792 8.09729981067699 7.63650574462528 7.1809582783349 6.73172392381929 6.29015342436215 5.85798110010406 5.43744740658608 5.03147080730232 4.64387121054542 4.27964341289966 3.94526587640165 3.64895487045132 3.40067735459579 3.21159817451205 3.09260188926298 3.05190437146322 3.09260188926298 3.21159817451205 3.40067735459579 3.64895487045132 3.68862498940777 3.54341237937943 3.46491890387905 3.45769460337689 3.52217869723935 3.65457434809514 3.84787379404473 4.09345407349921 4.38253265053377 4.70710090890848 4.62365874263142 4.3849764294631 4.14189099673856 3.82165214815423 3.5432703306371 3.31123124681326 3.11672861530361 2.9636670954817 2.81657447088533 2.600326648202 2.34535699475422 2.10957114376422 1.9467376133991 1.74611936429354 1.53567313025999 1.4415085734778 1.2638321691396 1.07078965846958 0.852006204501571 0.71792722623056 0.587274990080032 0.405534693470747 0.451904423829855 0.587274990080032 0.71792722623056 0.94137920918952 0.778155909126553 0.534093622077079 0.184079228349967 0.0480955797535448 0.504762395774518 0.813490996716831 1.15945655974567 1.34809554282003 1.36287024822254 1.03270737700846 0.682250059062022 0.462964791831966 0.451904423829855 0.587274990080032 0.551904433338113 0.551904433338113 0.551904433338113 0.651904426242526 0.651904426242526 0.551904433338113 0.184079228349967 0 0.119921837869904 0.472601519617593 0.934809828391908 1.31176077003551 1.72370415188633 1.79069824892804 1.66019734668581 1.67520111453479 1.83212835754366 2.09932730181947 2.44081464256411 2.50238581925809 2.45190446683065 2.48433096706593 2.61192110733968 2.68191211798301 2.80050976123567 2.89537892409402 2.78083253114076 2.75190441914694 2.78083253114076 2.55178897158105 2.35823940692588 2.26077254485803 2.27180912759543 2.3898439328525 2.58252957316688 2.66504061267008 2.76633674017991 2.81475488643712 2.78083253114076 2.71895551013148 2.65379000608235 2.65379000608235 2.62472746251209 2.14862852674918 1.66328918619193 1.19010785236988 0.75220863799179 0.462964791831966 0.604420125362967 1.00807528363295 0.745433403707128 0.323178875591095 0 0.454485293892235 0.749926579197999 1.18866679057446 1.66225838975869 2.05570794857945 2.31869937969718 2.65079966553858 3.00599931615807 3.38914110272649 3.79953491117988 4.22925593231924 4.67297660704673 5.12706463456569 5.58899415576402 6.05697150869286 6.52969728682467 7.00621009992307 7.48578684242892 7.96787477817629 8.45204371138083 8.93795633869417 9.42534225249781 9.9139843782871 10.3972102446232 10.6144132657281
16.6908390090447 17.1707345919874 17.6517468276306 18.1337851557212 18.6167710645105 19.1006322299777 19.5853056320044 20.0707291653395 20.3130339241147 19.8209324808856 19.3292358612486 18.8379764901306 18.347189692288 17.8569136923072 17.3671913667256 16.8780734543161 16.3896094685296 15.9018647942668 15.4149053902831 14.9288075893305 14.4436596644936 13.95955904578 13.4766192592401 12.9949711134827 12.514761172146 12.0361631203762 11.5593778812476 11.0846379267007 10.6122171552984 10.1424424915454 9.67569666929721 9.21244161618448 8.75322993651159 8.29873394011302 7.84977310899855 7.40735205441582 6.9727178496057 6.54742020830134 6.13340120360341 5.73310454130301 5.34961185357112 4.9868006055475 4.649515120529 4.34370542422732 4.07646318921763 3.85581748515926 3.69014012053706 3.58705980454027 3.55203454610041 3.58705980454027 3.69014012053706 3.85581748515926 4.07646318921763 4.16038726602603 4.03220471790839 3.96340661247125 3.95709271417 4.01355880695971 4.13022879557076 4.30220497231007 4.45201514993469 4.55900381707966 4.69410833769258 4.87696799497905 4.84002467234498 4.52304178458595 4.23174782219936 3.98214270998715 3.76389954321063 3.59398622699694 3.43307225330255 3.28853211523202 3.04033194814082 2.77543186514368 2.57928563481074 2.42528417650944 2.19338989969728 2.01509133223615 1.91838531394951 1.70271391738552 1.52267098021408 1.31446675593268 1.19052216961356 1.03283418895087 0.875268107789717 0.903460075670451 1.03283418895087 1.19052216961356 1.38854543201639 1.21135956762295 0.886735199765575 0.534179127878601 0.184186213059735 0.119867917731129 0.46059110125336 0.714352294716077 0.847965399042691 0.871307426554003 1.06692035751187 1.1234256486708 0.957286402068129 0.952034584288629 1.03283418895087 1.05203460813049 1.05203460813049 1.05203460813049 1.15203463197234 1.15203463197234 0.886735199765575 0.543238247696794 0.30844405705384 0 0.347965413337496 0.610539673550532 1.05986033250791 1.35167458819528 1.34480473390946 1.16528879755931 1.18658497378854 1.39951392352703 1.7347119091952 2.13532136254191 2.57095734518924 2.95203464146785 2.97901887619015 3.08621459683413 3.17731993404819 3.27803451547749 3.33973721886527 3.2062438407661 2.92459923576403 2.68383173683813 2.50276452184676 2.32669593740011 2.25018958998518 2.26790468421494 2.25920218167481 2.15726137143605 2.16882519912164 2.29217344483342 2.38180860366784 2.44796545389958 2.49852637921538 2.64440745788304 2.7967800438776 2.76921863362704 2.30617466829827 1.86231455373955 1.4552663353235 1.12564763306934 0.957286402068129 1.03283418895087 1.31055383276584 0.995345632677125 0.505152434875917 0.0520345964998484 0.100000001490116 0.600000023841858 1.10000002384186 1.40613390463164 1.62104262425014 1.94378613343566 2.29946961578341 2.69032812971051 3.11256724447759 3.5550271772563 4.01102493706429 4.47642650705347 4.9485803593989 5.42572482844889 5.9066507352184 6.39050443836337 6.87666813277477 7.36468483504152 7.85420847077626 8.34497476814524 8.83677653994976 9.32944970424542 9.78401480981869 9.96068301991899 10.1570314878331
16.8400560984343 17.3158161803515 17.7929065100602 18.2712214361599 18.7506671682497 19.2311608605334 19.7126241465581 20.1949883617729 20.4064317055068 19.9166370541176 19.4273626919972 18.9386495858514 18.4505398625092 17.9630840254195 17.4763374702721 16.9903613148028 16.5052233111776 16.0209978459934 15.5377723662537 15.055641783198 14.574715851952 14.0951173054692 13.6169869139355 13.1404835260592 12.6657918636242 12.1931233512954 11.7227227923387 11.2548745881489 10.7899108651265 10.3282210114207 9.87026453088765 9.41658530691577 8.96783278970917 8.52478554911751 8.08838104498845 7.65975414775313 7.24028677078037 6.83166567189979 6.43595739941509 6.05569312883117 5.69396805243433 5.35454074923031 5.0419165911599 4.76137880145423 4.51890778757824 4.32091912953471 4.17374919543701 4.08290059330494 4.05216472073761 4.08290059330494 4.17374919543701 4.32091912953471 4.51890778757824 4.63809951924702 4.52347740865766 4.39597744244286 4.22323555034244 4.07253623006565 3.97937707269943 3.94783527926239 3.97937707269943 4.07253623006565 4.22323555034244 4.42559732406815 4.67291306657969 4.90231108781354 4.65946847541929 4.42945991546432 4.22728305775082 4.07673335077541 3.91010715327786 3.71714429722938 3.45773805882114 3.22578395898489 3.05698669682358 2.8642730533344 2.64829533460207 2.50264090915808 2.37739717325311 2.16832681705217 1.96992478915053 1.79727721439436 1.67920461183525 1.50630651160397 1.36689544824476 1.38508742327691 1.50630651160397 1.67920461183525 1.83578961252656 1.59332241493134 1.23996160007251 0.886830782362082 0.543346416665846 0.243214703508568 0.0478352302269906 0.26791224808523 0.347835238583917 0.402008394103007 0.583452429641858 0.747835228998069 0.896972629678649 0.937698274291058 0.754520573856566 0.848417120527703 1.03906482994051 1.38938396973544 1.63078226894185 1.59332241493134 1.24404748207435 0.838866056515737 0.391030425826128 0.0478352302269906 0.121607351754284 0.524828640041747 0.937698274291058 0.853732274016564 0.954480051459338 0.678164713008297 0.714234152069421 1.03014319121522 1.45316454372572 1.91360862325108 2.38997917393378 2.87437965985606 3.36334549272567 3.44518184603887 3.26661345279051 3.05294763316299 2.91037311812577 2.84876641222714 2.52092570612249 2.23711079238636 2.03820455541859 1.84802339664256 1.75069590791646 1.77341453700693 1.79045858985747 1.65993889061241 1.67494496816658 1.83189410806212 1.89066302817958 1.94783521707714 2.0110236387534 2.18478370839454 2.32885546828706 2.40050785079381 2.4661578244003 2.16105372828386 1.82200288704436 1.57135216673829 1.45560787158159 1.50630651160397 1.59908905762925 1.12958404518479 0.652468452064421 0.254507066686868 0.141421347856522 0.60827624797821 0.853732274016564 0.937698274291058 1.23699011825787 1.59354088224374 1.99743968884959 2.4372097909621 2.89657151831774 3.36752295437972 3.84581170663466 4.32900762449785 4.81563435728001 5.30474852023814 5.79572013952481 6.28811454008421 6.78162175210522 7.2760156888295 7.77112657257583 8.26682588340226 8.76301435459506 9.15343227880012 9.31476846282318 9.49815779491445 9.70386993485647
17.0026787123523 17.4740132272787 17.9468975598375 18.4212142767699 18.8968565665526 19.3737241620645 19.8517304102606 20.3307949398626 20.5116003077168 20.0243786235366 19.5378031459124 19.0519215585602 18.5667903471275 18.0824704592256 17.599026832253 17.11653303045 16.635073887058 16.1547420398038 15.6756391644334 15.1978831053838 14.7216046035816 14.2469511549128 13.7740916910492 13.3032170343994 12.8345452965213 12.3683279238014 11.9048521910721 11.4444521032071 10.987513618444 10.5344872212412 10.0859000136352 9.64237132421069 9.2046329275767 8.77355210764028 8.35015818539708 7.93568274834304 7.53159837044182 7.13966906931834 6.76200829668928 6.40114230065858 6.06007247334127 5.74232684461505 5.45198560385138 5.19364668870729 4.97230265170703 4.79308191275561 4.66084797122569 4.57967451372701 4.55229489537479 4.57967451372701 4.66084797122569 4.79308191275561 4.90095901371641 4.5703112101771 4.25881785613417 3.98588743390445 3.75992910306514 3.58982786701209 3.48377975056775 3.44770510462521 3.48377975056775 3.58982786701209 3.75992910306514 3.98588743390445 4.25881785613417 4.5703112101771 4.91303727648522 4.88091698511487 4.69821104945694 4.54338226186692 4.39228500825812 4.14838621614538 3.89343997137529 3.68899042437166 3.52818994977787 3.31157934595303 3.11709846266723 2.99434717487797 2.82040101797914 2.64079674598706 2.42552589792761 2.28755534773979 2.14985903146188 1.98022953656795 1.86306885177049 1.87644892880631 1.99287640573076 2.14985903146188 2.2928756567736 1.94679091024847 1.59341646248324 1.24414702068499 0.90372392968478 0.604711562083691 0.366474199402807 0.152294947516505 0.152294947516505 0.0522949460263884 0.180627960449819 0.247705061998263 0.447705057869889 0.490769675082493 0.267791678960135 0.36206410516453 0.694811165104096 1.15462748749172 1.6380718792924 1.70140192187394 1.20198431583695 0.703390281849083 0.211261636073271 0.212345161979517 0.561346730886874 0.816325698865421 0.53133525194445 0.36206410516453 0.694811165104096 0.251865313906454 0.337374149749656 0.815001266841852 1.30930464289895 1.80673585486755 2.30527668771541 2.80433658408719 3.23118763303339 2.99514383420929 2.79653352800553 2.59271428538198 2.42319443105689 2.3498348019105 2.15559681373977 1.81845034933344 1.56723162002203 1.38464272249577 1.25171232641157 1.28331756088727 1.34458238521343 1.1650323051388 1.18633306943198 1.35141495088862 1.4058842947726 1.44770504228478 1.53170338485072 1.69560324713715 1.84770501844292 1.91420582911153 1.97068841564131 1.94274320826328 1.85041113692889 1.87191826155472 1.93774160484286 1.95369731399175 1.50404197479654 1.05441851313188 0.668786413958089 0.212345161979517 0.121661271893053 0.604328070722494 0.36206410516453 0.53133525194445 0.889677008216261 1.31986469896509 1.78668387254261 2.26767038080355 2.75542675737905 3.24690692825206 3.74064440704916 4.23585087409406 4.73206527375933 5.22900046395177 5.72646964792145 6.22434388336957 6.7225335866184 7.2209734575251 7.71961575137645 8.21842237824632 8.52263535140811 8.67841475144869 8.84674924714751 9.03963833917122 9.25554655877477
17.1783287351471 17.6449706903228 18.1133933119048 18.5834619930479 19.055052848602 19.5280588820218 20.0023770964809 20.477916846664 20.6283632057272 20.1439662127951 19.6603490656119 19.1775737992637 18.6957024488365 18.2148104008568 17.734974041781 17.2562830169947 16.7788337863703 16.3027379760585 15.8281153415692 15.3551048044095 14.8838570913771 14.4145483172774 13.947371263089 13.4825497273332 13.0203345726107 12.561014586063 12.1049189240956 11.6524259267249 11.2039716543907 10.7600622857233 10.3212837005413 9.88831886842168 9.46196497742762 9.04315831330582 8.63299728643684 8.23277294941315 7.84400770893719 7.46849068115426 7.10832169501487 6.76595163841117 6.44421944774834 6.14636563556147 5.87602350371975 5.63715260865627 5.4339063162768 5.270408304099 5.15044591754981 5.07710771761021 5.05242507001198 5.07710771761021 5.15044591754981 4.96888468414567 4.57598682692402 4.20588457538926 3.86513122165415 3.56215978869996 3.30737205149658 3.11262830866545 2.98969348734059 2.94757492998802 2.98969348734059 3.11262830866545 3.30737205149658 3.56215978869996 3.86513122165415 4.20588457538926 4.57598682692402 4.96888468414567 5.17462313859911 5.01455866432535 4.83463372914258 4.57299613785217 4.34305116141594 4.16075821486019 3.98249101303398 3.76425767662596 3.59436131076825 3.48845100483817 3.27988309088809 3.0880994547145 2.89587378820843 2.77048146423464 2.61240985982889 2.45440560696079 2.36091543711171 2.37148553956719 2.48380905773105 2.61240985982889 2.65381975051517 2.3003734241287 1.94952575566789 1.60297936188634 1.31083723703827 1.03319404579981 0.810239892298359 0.652425125101644 0.652425125101644 0.458281844961442 0.252425127675874 0.184507167189025 0 0.0475748807004505 0 0.141421347856522 0.559724739652768 1.03132974539494 1.44865456288621 1.66211747167148 1.18451888438699 0.699999988079071 0.200000002980232 0.300000011920929 0.800000011920929 0.81870788435513 0.40645381855883 0.121715192031828 0.604338844277511 0.405985923337266 0.463968709617783 0.875384457507949 1.34778682649718 1.83483154178628 2.32736788641447 2.82252703915205 2.81824393771068 2.54796894988648 2.3286153197775 2.15039174196278 1.94261938702235 1.85028115192216 1.83005127010775 1.44865456288621 1.12187805883092 0.937462765675703 0.754262517993447 0.80573775262199 0.954303026615487 0.67791593476106 0.713997866776122 0.853473713661937 0.937462765675703 0.947574867492407 1.07165301088804 1.21540021848775 1.34757484365055 1.43744884947345 1.47836917894469 1.47525247885579 1.35128513223528 1.38060696867688 1.56735659379421 1.83005127010775 1.40169690607098 0.902634950279339 0.405856728077752 0 0.400000005960464 0.600000023841858 0.100000001490116 0.211230905988005 0.703381030613869 1.20197890128215 1.7013980965217 2.20108067007465 2.70088081107887 3.20074322369982 3.70064284049252 4.20056603861074 4.70050592211371 5.20045714835197 5.70041722192375 6.2003836474273 6.70035483687967 7.20033010971674 7.6921303594606 7.89918950838445 8.04584632743488 8.20458328429834 8.38243825310496 8.58576603502348 8.81280212985553
17.366609132908 17.8283228904052 18.2920510728438 18.7576429996818 19.2249620518001 19.6938871612989 20.1643046947194 20.6361145649968 20.7565207038379 20.2751860349757 19.7947762076019 19.3153599837438 18.8370146597596 18.3598241589891 17.8838792267074 17.4092828597409 16.9361477866122 16.4646007972672 15.9947822280454 15.5268495814243 15.060977428542 14.5973627762525 14.1362300304505 13.6778266939902 13.2224405190008 12.7703915363229 12.322048156673 11.8778286880848 11.4382154809863 11.0037599540859 10.5750969969638 10.1529611337973 9.73820047348396 9.33179980660131 8.93489756276874 8.54881939802443 8.17509691332054 7.81550399853523 7.47208039935825 7.14715789459621 6.84337084223977 6.56365572699564 6.31121500068141 6.08944081264942 5.90179251137547 5.75161205282899 5.64189214631479 5.57502399379385 5.55255524464917 5.5350254717844 5.12268551739196 4.68954140402447 4.27102568321978 3.87188340628271 3.49875074704471 3.16085168058703 2.87065595667703 2.64392538187571 2.49801619941541 2.44744475535083 2.49801619941541 2.64392538187571 2.87065595667703 3.16085168058703 3.49875074704471 3.87188340628271 4.27102568321978 4.68954140402447 5.12268551739196 5.49086072400712 5.25984365855046 5.01156402309234 4.80266561492342 4.63735217202751 4.42980832093023 4.22764814262772 4.07711193076132 3.93841512736628 3.74978725497375 3.54111649934413 3.37480255584737 3.25249989267616 3.08671262911175 2.93721193127855 2.85956010923929 2.86829204532182 2.96264308458174 3.08671262911175 3.00744275485296 2.65586513378713 2.30705587192006 2.01410036091773 1.70897938667051 1.4798032078475 1.25649538340063 1.15255533114182 1.1238898907249 0.852580284334837 0.752555295379038 0.629199410651616 0.452555297597733 0.406098730803899 0.152555297043059 0.100000001490116 0.460196744851252 0.742177052279461 1.14088165801563 1.50705499497524 1.03129820823577 0.559666709396003 0.100000001490116 0.290982933813287 0.583085574777228 0.523478015976709 0.14744470742729 0.428870189613029 0.816501442850193 0.875774921726635 0.903951005961511 1.16962510677012 1.55518415542825 1.99220724867444 2.45337404749417 2.72637412221936 2.42543706928606 2.11999085394989 1.87740409365234 1.69535023230958 1.47513353493509 1.35115531358194 1.38047989764785 1.14088165801563 0.742177052279461 0.458612492805634 0.267550540709919 0.361813954113798 0.672002808993562 0.251711093521884 0.267550540709919 0.361813954113798 0.531164240341405 0.447444708362732 0.647444712104501 0.761493047450855 0.847444700183572 0.952721805574686 0.993920556871504 1.03874590673481 0.853344433484617 0.899132592652228 1.16590517429678 1.55238840011374 1.14088165801563 0.742177052279461 0.337258743709498 0.0474447059371734 0.430653941208199 0.697250344469763 0.323684685355595 0.394037528952786 0.785042442405393 1.25163632407764 1.73686132419493 2.22861552354173 2.72337057231983 3.2197451980851 3.71709114056165 4.21506476620873 4.71346732905126 5.21217576818918 5.71111008264387 6.21021558563318 6.70945454773658 7.10617143276426 7.25587826332926 7.42200435427523 7.57206962671988 7.73406464113941 7.92249106794047 8.13731949934372 8.37651970858522
17.5671150374448 18.0236938843413 18.4825197098995 18.9434315992663 19.406276759666 19.8709234816004 20.3372467825128 20.8004532227667 20.8958676419732 20.4178174737771 19.9408439721928 19.4650261385246 18.9904519156948 18.5172138613332 18.045419791859 17.5751861579813 17.106642659407 16.6399268301228 16.1752016972156 15.7126419879703 15.2524457178607 14.7948332880965 14.340050346646 13.8883779298699 13.4401256331369 12.9956508379744 12.5553541388163 12.1196892895173 11.6891756937956 11.2644029784852 10.8460463962234 10.4348763207376 10.0317788179103 9.63776488495935 9.25399524597047 8.88179826682382 8.52268923356564 8.17839393815978 7.8508604250246 7.54227344492915 7.25505058907461 6.99182574857512 6.7554044917675 6.54869196424035 6.37457809424955 6.23579565379145 6.13474295201183 6.07330380052766 5.83474474120935 5.36602248174479 4.90348164017212 4.449050303213 4.00548821889516 3.57684037113239 3.16916144354994 2.79165041024845 2.45824344823625 2.18919013384069 2.01051926642503 1.94731451790766 2.01051926642503 2.18919013384069 2.45824344823625 2.79165041024845 3.16916144354994 3.57684037113239 4.00548821889516 4.449050303213 4.90348164017212 5.36602248174479 5.68943733928393 5.4607266713275 5.26966629568808 5.10073047865605 4.88127318374089 4.69858111376279 4.56360902448514 4.39484159408712 4.20632348435016 4.00536552660518 3.85911693097687 3.72577391697391 3.56100886763856 3.42499696343114 3.35864690735495 3.36608356566523 3.4468295719469 3.56808004320337 3.36256364717174 3.01258899870631 2.70654009727672 2.40287925539881 2.15021359510712 1.92674271858984 1.72672491860527 1.6526855059342 1.54274838370397 1.31508662252127 1.25268546697008 1.07617439727974 0.90407373853428 0.822755856586389 0.534606656886204 0.184721136608561 0.0473145311738963 0.472189232119317 0.812963764762524 1.16581042176027 0.913305662143242 0.428824754651684 0 0.211169445817474 0.211169445817474 0.562002975619215 0.252685477221825 0.534606656886204 0.967756745286517 1.36741051808976 1.38559570739302 1.57175261288832 1.87642158306172 2.25196663178911 2.66863487471539 2.36747314113518 2.0211907550665 1.73118153391169 1.43052054640026 1.21515434164859 1.03863959899958 0.853215153307296 0.89900986007946 0.74208082940859 0.476874288926835 0.0473145311738963 0.0526854703162198 0.0526854703162198 0.337201040689419 0.147314532664012 0.141421347856522 0.121823032309379 0.119598317037259 0 0.147314532664012 0.428824754651684 0.347314539569618 0.458485453433407 0.539316100367196 0.694614770952048 0.361688878588432 0.460098155750722 0.873338849828556 1.20726226499781 1.00235980191917 0.504685056807518 0.0473145311738963 0.300431775636009 0.675503342701435 0.89900986007946 0.778910480689178 0.810481556610159 1.099028388429 1.47266187694913 1.90238455211073 2.35992398352905 2.83184393373377 3.31200846138606 3.79729394501315 4.28596165080365 4.77697453039853 5.26967739789123 5.76363713387522 6.25855585534156 6.49988591144767 6.6256022656445 6.78592035354397 6.94168581886067 7.09693545751212 7.2675030174267 7.46771126546982 7.69524717430892 7.94776381483438
17.779430418974 18.230693967736 18.6844374586501 19.1404872155825 19.5986790991424 20.0588700581824 20.2489999422997 20.3757706661757 20.5139477238055 20.5716219244037 20.0982982809835 19.6262993041892 19.155719354074 18.6866692716752 18.2192634979109 17.7536347546233 17.28992609296 16.8282940229172 16.3689179426746 15.9119905481484 15.4577299418844 15.0063789145523 14.5582065097176 14.1135166606147 13.67264797533 13.2359840457554 12.8039541327415 12.3770424139685 11.9557997706144 11.5408438410596 11.1328800554254 10.7327047317662 10.3412226181356 9.95945841073446 9.58857222751662 9.22987711690331 8.8848486482305 8.55514051311469 8.24259069748392 7.94922585366842 7.6772436676017 7.42899344275741 7.20692873215826 7.01353770997494 6.85124870406473 6.72231473749904 6.6148105348018 6.17225215783531 5.68741357639372 5.20544333950291 4.72721914778559 4.25400364088702 3.7876735515074 3.33112044534302 2.88898039302227 2.46900309042122 2.08461767234342 1.75930277022091 1.5312111575618 1.44718434311529 1.5312111575618 1.75930277022091 2.08461767234342 2.46900309042122 2.88898039302227 3.33112044534302 3.7876735515074 4.25400364088702 4.72721914778559 5.20544333950291 5.68741357639372 5.91807182438392 5.74225064910023 5.54805265292018 5.34141651307661 5.17499687881846 5.05276961074854 4.85988012943868 4.65798836103003 4.47735254339408 4.3470159609855 4.19345094837701 4.03539459334383 3.91589955100134 3.8580040264867 3.86447965684957 3.9350084333958 4.05399500482281 3.71875252691596 3.40277173065442 3.10277957373924 2.82434374840661 2.59734273780963 2.37382785558528 2.2101454864819 2.15281562447844 1.97050356396704 1.79791171216774 1.74692902552178 1.53653452801559 1.38572277842205 1.24040831248217 0.887308695344607 0.600950469137664 0.184828121318328 0.119544396898484 0.459999566650192 0.761271449517635 0.914208719159082 0.43074481113089 0.052815645079497 0.38138818705647 0.464264476919373 0.834749792472998 0.752815644963784 0.904156972097114 1.24040831248217 1.63985237363264 1.87696290928485 2.01824642371069 2.15648368295838 2.25845952424321 2.38539672476273 2.05127817381492 1.66052139044783 1.31814692877498 1.02442482207572 0.761271449517635 0.647184362674935 0.361563803063066 0.447184358855575 0.319510798813552 0.0471843564106192 0.121876952448154 0.0471843564106192 0.121876952448154 0.406501894186386 0 0.0471843564106192 0.24718436290636 0.21246808232058 0.252815651994801 0.272525156504073 0.400000005960464 0.052815645079497 0.121876952448154 0.308570803678224 0.604371164942562 0.121876952448154 0.308570803678224 0.55631922383571 0.812875892770138 0.947184343115287 0.56206100587598 0.252815651994801 0.464264476919373 0.401444356769855 0.459999566650192 0.873286744980497 1.28828682862065 1.48669822362522 1.80578035225998 2.17293310913471 2.58300609061199 3.0202821210987 3.47451090979879 3.93983629452053 4.41275087695071 4.89105419593176 5.37330853076762 5.80635811773325 5.91525735229337 6.01246206888355 6.14815449731996 6.32059530589281 6.46437246702277 6.62326104582476 6.80571144958544 7.01910475013526 7.26071327216785 7.52782082799682
18.0031410625501 18.4489320311267 18.8974367103222 19.3484670577352 19.5402089795324 19.6461138637159 19.7641043845867 19.8939656844884 20.0354652916361 20.1883615331182 20.2668758162255 19.7988948524806 19.3325161754667 18.8678619678704 18.4050591245628 17.9442517065527 17.4855981361507 17.0292719820824 16.5754661113079 16.1243931370126 15.676288841501 15.2314151488405 14.7900629858845 14.3525585654364 13.9192630498795 13.4905838267081 13.0669739474095 12.6489432913734 12.2370632218894 11.8319757303337 11.4344037018379 11.0451583206888 10.6651508507893 10.2954050334244 9.93706651163077 9.59141203056981 9.25986464013008 8.94399161901735 8.64551216033623 8.36628744229039 8.10830744455058 7.8736612446359 7.66449118498323 7.48293545658627 7.33104599872381 7.06394778256914 6.5688164672839 6.07448286494404 5.58115840880725 5.08913702420691 4.59883641673024 4.11087206550564 3.62618713229401 3.1462956326991 2.67377786677602 2.2133559759717 1.77445481708527 1.37775975229524 1.07119234356982 0.947054168322927 1.07119234356982 1.37775975229524 1.77445481708527 2.2133559759717 2.67377786677602 3.1462956326991 3.62618713229401 4.11087206550564 4.59883641673024 5.08913702420691 5.58115840880725 6.07448286494404 6.21745485808509 5.99875412104015 5.80817633186358 5.65551010527326 5.51113949779864 5.32456559931295 5.11867544725924 4.95486558921358 4.83115775169601 4.66786339383161 4.51534216698348 4.40887730017142 4.35753837307385 4.36327275452995 4.42585798671132 4.42524617188976 4.10275294324457 3.80537525031972 3.51149828707743 3.26808016519168 3.04453054973973 2.83521288572917 2.69966801881299 2.64901844861306 2.42613020147308 2.2881961698907 2.19420067760373 2.01597398381081 1.87709140440447 1.59388670024278 1.27991619263248 0.887404277941103 0.53477766848924 0.25496972784056 0.119490476759714 0.428733884728997 0.899999976158142 0.400000005960464 0.100000001490116 0.5 0.87559287690018 1.16990936437962 1.25294581624445 1.3491542595328 1.60338588241511 1.72133582769435 1.64705421600664 1.65008991712619 1.65916352239222 1.77264472641788 1.92162149728066 1.81957495654316 1.36404019828902 0.953948976927774 0.624373549610206 0.31940963686066 0.147054183137472 0.0470541816473563 0.0529458198427599 0.0529458198427599 0.323988171214291 0.30859192811562 0.119490476759714 0.180093036900993 0.0470541816473563 0.0529458198427599 0.184935106028084 0.243861745173847 0.121930872586923 0.119490476759714 0.594943932125555 0.58823546926964 0.46398110680975 0.504659277151852 0.390532828131245 0.247054188133398 0.390532828131245 0.147054183137472 0.119490476759714 0.539099762429103 0.447054184102011 0.539099762429103 0.458231374688968 0.405792627241012 0.0470541816473563 0.300000011920929 0.800000011920929 1.29999995231628 1.79999995231628 2.18259132200701 2.51278733829762 2.87660703985844 3.27492052097707 3.69800964062029 4.13828476785814 4.590805382357 5.0522831080908 5.262279986275 5.32368754959859 5.42227424672747 5.52730913375419 5.67461605714297 5.84289194630874 5.99078430770863 6.15377525479111 6.34973097353294 6.57793419146551 6.83515615501769 7.1182512492213
18.2378250064929 18.678015875093 18.8710850727923 18.9543627417566 19.0504044752006 19.1590163838883 19.2799877644657 19.4130877104086 19.5580671367104 19.7146656316129 19.8826065122245 19.9825198256965 19.5205293288913 19.0604579032049 18.6024477047802 18.1466532288566 17.6932472664951 17.242417750206 16.7943726983301 16.349340097699 15.9075731781785 15.4693521071953 15.0349868289022 14.6048202772208 14.1792370175804 13.7586590215309 13.343561842394 12.9344729794064 12.5319809669612 12.136741426816 11.7494858858414 11.3710312540943 11.0022852535141 10.6442563653555 10.2980630149119 9.96493941090132 9.64623891266135 9.34343766883674 9.05812996634759 8.79201947131078 8.54690039023332 8.3246257640802 8.12707179349242 7.95607939316127 7.51346953162042 7.01442939044579 6.51553678694523 6.01682785088064 5.51835273470768 5.02018037101868 4.52241167730831 4.0251955337572 3.52876613068289 3.03350899064247 2.54010900853984 2.04990523630447 1.56589471657053 1.09627227370171 0.671655011524494 0.446924009348433 0.671655011524494 1.09627227370171 1.56589471657053 2.04990523630447 2.54010900853984 3.03350899064247 3.52876613068289 4.0251955337572 4.52241167730831 5.02018037101868 5.51835273470768 6.01682785088064 6.51553678694523 6.45673973903758 6.2800770350959 6.1391582941737 5.97302190518486 5.77539935695824 5.58615220428641 5.4364483254182 5.3050240974478 5.14223869733792 4.99924897440391 4.90330488958476 4.85719578035375 4.86234045813282 4.91857829839819 4.80484659919351 4.50783276765628 4.20530003780014 3.94135927085813 3.71531695730973 3.49175433477859 3.30788689772489 3.1924834537076 3.08867947407789 2.89649236835144 2.78199189917781 2.6491389676149 2.48540248385509 2.30084063509438 1.97261929849697 1.59398074779469 1.24058699744603 0.815989267446528 0.339754944623939 0.053075994606037 0.400000005960464 0.624259353589281 0.5204429949089 0.100000001490116 0.290893595831587 0.732666528217863 1.09509007353601 1.3986592134263 1.6535328142431 1.52200778404017 1.2513317559497 1.14692404121427 1.15128336646163 1.16426282787725 1.28255811045261 1.47465775925233 1.63419949070224 1.18595208275913 0.716915877359582 0.251402652752754 0 0.121984792725698 0.121984792725698 0.54410359944919 0.553076006469446 0.746339600754916 0.525089382232918 0.121984792725698 0.200000002980232 0.406549960670418 0.54410359944919 0.660731529248287 0.683172550716827 0.400000005960464 0.100000001490116 0.246924013360422 0.179986052191226 0.146924008374195 0.0469240068840791 0.31622776389122 0.153075996096153 0.388024820292958 0 0.0469240068840791 0.0469240068840791 0 0.0469240068840791 0.100000001490116 0.053075994606037 0.200000002980232 0.54410359944919 0.920418992170421 1.37749857233987 1.85677731982005 2.34471254299644 2.83684775574788 3.20266028199116 3.54233501857681 3.91369964861184 4.27609285065021 4.63297651795144 4.74692399445087 4.76374908025974 4.83149788165275 4.9297823689236 5.04508316115463 5.2060545403656 5.36106542526866 5.51547357127176 5.68951508690009 5.90090961197591 6.14580238168495 6.42036135776616 6.72095121540463
18.2459910878324 18.3048125492491 18.3770563171474 18.4625621742423 18.5611488001081 18.6726071566109 18.7967102692635 18.9332062457408 19.0818336569743 19.2423071708852 19.4143357333483 19.5976141685825 19.7194371191447 19.2641162940918 18.8110654221411 18.3604508095405 17.9124574691074 17.4672865649697 17.0251595941801 16.5863206973636 16.1510370256343 15.7196047865969 15.2923487980852 14.8696301175572 14.4518460420948 14.039437676646 13.6328925322447 13.232750388554 12.8396121215462 12.454139134936 12.077065757947 11.7092029988563 11.351447696629 11.0047853207892 10.6702956323126 10.3491598667603 10.0426602880182 9.75217472905334 9.47917829761297 9.22522215077847 8.99192020467764 8.78091823179866 8.50031307416927 8.00033235588472 7.50035468208156 7.00038005275978 6.50040922903974 6.00044322574855 5.50048356512693 5.00053202312233 4.50059113680259 4.00066496547622 3.50075985181278 3.0008865783505 2.50106379253789 2.00132929668549 1.50177157103361 1.00265364608872 0.505268443326417 0.0532061693693141 0.505268443326417 1.00265364608872 1.50177157103361 2.00132929668549 2.50106379253789 3.0008865783505 3.50075985181278 4.00066496547622 4.50059113680259 5.00053202312233 5.50048356512693 6.00044322574855 6.50040922903974 6.92056338407252 6.75604089741253 6.625254654017 6.44062088657571 6.23375916205936 6.05884710084896 5.92110822354069 5.77474904791049 5.61667565009535 5.48606744519221 5.39878297001028 5.35694152613833 5.36160672575738 5.41265839680805 5.20486214852272 4.90292900451189 4.62477122477031 4.38614950644777 4.16257386892909 3.94921210732993 3.78762319688493 3.68726996645837 3.54171426048359 3.37542981678241 3.2777106511697 3.11796143984903 2.96326973100237 2.67294415835184 2.30093407728751 1.89999997615814 1.39999997615814 0.899999976158142 0.400000005960464 0.100000001490116 0 0.238765272964328 0.559376558112186 0.339812647644018 0.046793832120802 0.390366962232945 0.7132890108962 0.983718000088031 1.18545140418398 1.15833542319542 0.818089235001653 0.646793838530599 0.654522835419875 0.677169600019319 0.805012759686604 1.02800497600644 1.25958093349515 1.01192064108109 0.523291771554441 0.100000001490116 0.291971446297811 0.495792349979163 0.495792349979163 0.816940802812114 1.05320618126182 0.740046323537357 0.319207312954856 0.0532061693693141 0.100000001490116 0.459703799348613 0.873130430436324 1.15754187284911 1.00865686876666 0.605391581098726 0.272886863879384 0.185149075447619 0.253206176313715 0.353206177326075 0.25512394822513 0 0.146793833610918 0.046793832120802 0.122038712864474 0.185149075447619 0.212560272576373 0.0532061693693141 0.211046525476415 0.046793832120802 0.146793833610918 0.212560272576373 0.70378123396141 1.2022131319451 1.61252155367309 2.01246118545532 2.31766144622637 2.56309677788244 2.86702214287591 3.21548681840112 3.56894656317956 3.92643284311692 4.24797106317803 4.24679381919296 4.2655924685029 4.34112480365756 4.4389997252955 4.56671097647307 4.7439450517502 4.88292188850558 5.04205653772708 5.23187248877004 5.46101263884293 5.72475559198459 6.01855426717854 6.3382289165773
17.7486549967668 17.8091206288768 17.8833664756282 17.9712226557213 18.0724887702782 18.1869425495476 18.3143359109356 18.454401571091 18.6068525376802 18.7713882123864 18.9476926108325 19.1354414837508 19.3342999005492 19.4784896076569 19.0305432174684 18.585250459175 18.1428086797244 17.7034308666676 17.2673525139252 16.8348274261366 16.4061378908995 15.9815939160025 15.5615323393864 15.1463285273481 14.7363910975145 14.3321722187828 13.9341711714757 13.5429339023214 13.1590651681078 12.7832291711786 12.4161539464207 12.0586400079692 11.7115636552495 11.3758797067288 11.05262696785 10.7429265777948 10.4479843618524 10.1690852366441 9.90758265607093 9.66489009188 9.44245789093831 9.01713122608174 8.51813736325016 8.01926798802648 7.52054891346823 7.02201250129705 6.52369925128412 6.02566584406145 5.52798755712551 5.03076935936325 4.53416291831589 4.03839374850962 3.5438130282625 3.05099799067635 2.56096759925787 2.07569146474365 1.59949220282896 1.14371885768945 0.746532046496658 0.553336356054193 0.746532046496658 1.14371885768945 1.59949220282896 2.07569146474365 2.56096759925787 3.05099799067635 3.5438130282625 4.03839374850962 4.53416291831589 5.03076935936325 5.52798755712551 6.02566584406145 6.52369925128412 7.02201250129705 7.2352666534945 7.08777702778379 6.89308754254428 6.69809953034397 6.53562751111053 6.40814572642338 6.24919545489788 6.09522288401958 5.97508553679605 5.8950473154699 5.85675251106836 5.861019915336 5.90058260206945 5.60295662047298 5.31440917100468 5.05892929514385 4.83342597546622 4.60984491656798 4.41593605828831 4.2720416085404 4.18332866053593 4.00597528474199 3.85974982806434 3.76509332126175 3.59523650623467 3.3761421628481 2.93563351684092 2.44293220666205 1.95393724649019 1.47233484457984 1.00871502728003 0.562293126903032 0.185256060157386 0 0.100000001490116 0.24666366381447 0.459605210248083 0.324291657072997 0.0466636573575249 0.319106151001954 0.538775255521946 0.713170868249545 0.677045210895694 0.459605210248083 0.146663658847641 0.179772082771691 0.238657432686778 0.361063500961615 0.582351865047955 0.882791514399991 0.74906864623296 0.390284029283795 0.0466636573575249 0.336912525589031 0.81480969849014 0.974143760212325 1.18310060354335 1.10241937780422 0.60441425916263 0.122092633003249 0.251248432368184 0.17266506047598 0.300000011920929 0.800000011920929 1.29999995231628 1.31149851367397 0.963581093903825 0.759973223284801 0.660988834038245 0.753336344133264 0.853336336184184 0.605488726672305 0.453336346119189 0.273007433004492 0.353336352079653 0.495911203274498 0.660988834038245 0.394535126647678 0.253336351086691 0.0533363441325912 0 0.119328716343389 0.266827125959284 0.609794849490068 1.05943072641054 1.39844553590111 1.6199596636321 1.87671846967614 2.16160665540314 2.50840862600937 2.86182566420157 3.2201778674093 3.60829209047493 3.74799831221731 3.74666365984397 3.76795919251956 3.85326143673669 3.95056336081974 4.09354518301123 4.26555461719813 4.4096607510989 4.574330173699 4.7827479334677 5.03238214108031 5.31742907710831 5.63251516299534 5.92279463785624
17.2514822618174 17.3136836620472 17.3900460881589 17.4803795606078 17.5844741388073 17.7020827549906 17.8329410430165 17.9767579338626 18.1332251923691 18.3020195890612 18.4828022389636 18.6752238328023 18.8789315110801 19.0935608379711 19.2578734802941 18.8206587089698 18.3838820984874 17.9504067879858 17.5204751429786 17.0943571194159 16.6723426342899 16.254752254408 15.8419359121258 15.4342762291999 15.0321938421225 14.6361474021211 14.2466400715756 13.8642230742408 13.489500085959 13.1231309832386 12.7658332407062 12.4183902687534 12.0816535001891 11.7565419464612 11.4440457008139 11.1452277795169 10.8612160957599 10.5932013920528 10.3424288174074 10.0554586255377 9.55835991689667 9.06158038770125 8.56517612543263 8.06921530379737 7.5737857460034 7.07899899440549 6.58499946958919 6.09197884160407 5.60019574558377 5.11000728605765 4.62192074324581 4.13667973434045 3.65541733987132 3.17993847199328 2.71328327244205 2.26091628417976 1.83342906635825 1.45291971402733 1.16629857241868 1.05346653084657 1.16629857241868 1.45291971402733 1.83342906635825 2.26091628417976 2.71328327244205 3.17993847199328 3.65541733987132 4.13667973434045 4.62192074324581 5.11000728605765 5.60019574558377 6.09197884160407 6.58499946958919 7.07899899440549 7.5737857460034 7.55259629871413 7.34980937277516 7.16725812010918 7.01566044112281 6.88531251271186 6.72360047480341 6.57698250152133 6.46580402844018 6.39191415833151 6.35661397135392 6.36054572905507 6.30458440364323 6.00813024608942 5.73998835587734 5.50429865057404 5.28071167607887 5.06509029727841 4.88927231763771 4.75971212294729 4.65858255302009 4.47797073558607 4.34765271275431 4.22850000734049 4.01515215091813 3.53148766684339 3.05308777857654 2.58287618097309 2.12628529073049 1.67919707268652 1.25271906033569 0.887786608327131 0.62999878279808 0.367599879131088 0.324392819025899 0.122146553142024 0.0465334825942477 0.390201096334645 0.308676425865211 0 0.119274796204614 0.336854822568952 0.238549592409227 0.0465334825942477 0.0534665188958684 0.168680035736272 0.153466520385984 0.0534665188958684 0.179665098061923 0.530565699730757 0.459506621147553 0.100000001490116 0.153466520385984 0.394618059596828 0.840543012325211 1.32538470929532 1.61339265145068 1.22361052408558 0.745957741857184 0.324392819025899 0 0.0465334825942477 0.308676425865211 0.803328711558565 1.30205330532441 1.66801219295515 1.38983618711516 1.22096434374711 1.15780124200404 1.25346651479323 1.31159298176479 1.03415366406368 0.904810133970877 0.760102251216368 0.811206549545545 0.974271135472545 1.09956228320931 0.811206549545545 0.605585872245883 0.353466526833231 0.353466526833231 0.251171322175899 0 0.5 0.713052725602889 0.936520731214241 1.20658426751795 1.45790422374753 1.80142699745876 2.15475502675306 2.51445642229801 2.91080086032322 3.24653348520677 3.24807363673271 3.24653348520677 3.27108795669923 3.36899920666949 3.46546563699885 3.62762412713597 3.78118770273211 3.93404918451761 4.11423604318384 4.34478411327929 4.61815567120429 4.92722657760024 5.23751644826636 5.50288637994879
16.7544850972919 16.8185254443625 16.8971248095906 16.9900797173395 17.0971593784247 17.2180983969802 17.3526058337381 17.5003715387412 17.6610595442242 17.8343227127359 18.0197982364272 18.2171112526904 18.4258839692932 18.64572980513 18.8762625907043 19.0593996163359 18.6352633806964 18.207773518506 17.7840656677413 17.3644165311567 16.9491274698365 16.5385275700211 16.1329735059049 15.7328567950956 15.3386025396063 14.9506749730245 14.5695791002017 14.1958647486819 13.83012980366 13.4730274634414 13.1252571452349 12.7875839325742 12.4608283593065 12.1458702552169 11.8436515761242 11.555171735038 11.281485015542 11.0236942014071 10.6144287696626 10.1200839661029 9.62632255705785 9.13323981043 8.64095313443564 8.14960466422179 7.65937616555728 7.17049725943045 6.6832637974301 6.19806388535791 5.71541497362459 5.23602262995948 4.76087035629998 4.29136642370866 3.82958785428623 3.37870181307617 2.94371530235274 2.53282783125843 2.15983001552557 1.84780789217371 1.6321449802648 1.55359670563893 1.6321449802648 1.84780789217371 2.15983001552557 2.53282783125843 2.94371530235274 3.37870181307617 3.82958785428623 4.29136642370866 4.76087035629998 5.23602262995948 5.71541497362459 6.19806388535791 6.6832637974301 7.17049725943045 7.65937616555728 8.01093704635381 7.81185045266308 7.64034731665417 7.49832172155594 7.35613831915398 7.19805668862705 7.06129848700292 6.95786318227858 6.88925347727821 6.85651426476274 6.86015989261283 6.70466709890644 6.42669559653892 6.17675220362055 5.95159413628888 5.72800422704247 5.52809962028167 5.36747185381593 5.24972844676584 5.11927976632275 4.95548990792809 4.80213983586453 4.48788536132109 4.12613907459518 3.69797894644614 3.24421533327778 2.79705098472279 2.36078240430011 1.95524244728569 1.59435693800231 1.30050683975749 1.04376995183743 0.859454143566243 0.779790814178896 0.405712501195086 0.100000001490116 0.0464033078309848 0.421908670441243 0.18547002957691 0.153596695149247 0.0535966936591313 0.18547002957691 0.339985756704249 0 0.18547002957691 0 0.179558113352167 0.0535966936591313 0.119220876065844 0.0464033078309848 0.18547002957691 0.535205197496843 0.76672934567818 1.09965126567269 1.50325458888111 1.86010486954822 1.41763777246526 1.00883134430677 0.60568301781945 0.273248571254695 0.353596701586795 0.60568301781945 0.973734854857655 1.41371115162809 1.88381102464456 1.85347321680914 1.70132890311153 1.65662043530466 1.7535966894304 1.70986409376486 1.50768682023002 1.3864852045962 1.25758516433578 1.2890462790553 1.4430953830007 1.48735597006179 1.2890462790553 0.989579682333857 0.603840465547405 0.119220876065844 0.0464033078309848 0 0.146403309321101 0.318903827096161 0.530480193929244 0.760606655717999 1.09473414368247 1.44780642265842 1.80989664043908 2.21947314004633 2.59782758094423 2.7464033105696 2.74822387455498 2.7464033105696 2.77538872495803 2.87437994778196 2.98533697393011 3.17214374012777 3.30152706641824 3.46113177403697 3.66465112948037 3.92172367251452 4.22257629328464 4.55439928757649 4.80979263128017 5.08652086235469
16.2576808114967 16.3236690210724 16.4046408166907 16.5003699642855 16.6106064590172 16.7350621490736 16.8734211550029 17.0253455917595 17.1904748282832 17.3684329747247 17.5588296228666 17.7612651120861 17.975333775377 18.2006226006757 18.4367222484476 18.6832223543991 18.8853171964654 18.4750958475503 18.0576612697183 17.6445199323348 17.2359818506369 16.8323799280453 16.4340793507391 16.041474939885 15.6549951085044 15.2751050364104 14.9023078934316 14.5371495514875 14.180220776275 13.8321580387737 13.4936477712384 13.1654265093677 12.8482832409473 12.5430583100077 12.2506424631492 11.9719737604774 11.6770886966893 11.1901826203062 10.699074556582 10.2088287389601 9.71957668862273 9.23147670071771 8.74472066224684 8.25954726133786 7.77625284047801 7.29520992207891 6.81689514936915 6.34192556895492 5.87111385805714 5.40554539442023 4.94670130105227 4.49663928152889 4.05828088921561 3.63586155491863 3.23562680980509 2.86688101752568 2.5433562585925 2.28435374243413 2.11374871800344 2.05372681638388 2.11374871800344 2.28435374243413 2.5433562585925 2.86688101752568 3.23562680980509 3.63586155491863 4.05828088921561 4.49663928152889 4.94670130105227 5.40554539442023 5.87111385805714 6.34192556895492 6.81689514936915 7.29520992207891 7.77625284047801 8.25954726133786 8.27831987846885 8.11668063826884 7.98313307560832 7.83059874165818 7.67577363869331 7.54767669353178 7.45099766110972 7.38696962299478 7.35644623315097 7.35984364303752 7.11741601918472 6.85619997614471 6.62248764252532 6.39889449934716 6.18183106743103 5.9970745056516 5.84934120168147 5.73265736944126 5.35759719220489 4.93494985560779 4.52808864605367 4.14166714760913 3.78074432831429 3.44147871385886 3.14539132402455 2.90571586664676 2.66025685144484 2.30130784606005 1.98634785359812 1.74322289550621 1.48087370313371 1.3574202903973 1.00888950282014 0.605780163393028 0.255432388994261 0.153726869912525 0.0537268684224084 0 0.0462731330677077 0.34627314154102 0.300000011920929 0.0537268684224084 0.273369140379803 0.100000001490116 0.100000001490116 0 0.119166955927069 0.185577014286677 0 0.5 0.887977773520135 1.22121022058626 1.4635677897805 1.8064118033764 2.1126867019048 1.69449038642958 1.31178191794641 0.963885880717472 0.760360307079488 0.811448213857332 0.9896918473536 1.31178191794641 1.67387145821108 2.08619168052773 2.33226276421376 2.1905759038704 2.15604834989449 2.23578156487926 2.15115909816105 1.99427910145841 1.85359635029049 1.75657793944502 1.77922140432347 1.92001893395289 1.92768978958662 1.63935814809109 1.15645176785214 0.697839526925891 0.324595142931693 0.153726869912525 0.273369140379803 0.324595142931693 0.0537268684224084 0.119166955927069 0.390035230436353 0.741311046441642 1.10873983655881 1.5287124716682 1.89783931874028 2.20214919587482 2.2462731359324 2.24849898602893 2.2462731359324 2.28162653168432 2.38014033979352 2.51302913240613 2.69311106001964 2.82897003274629 2.99706752885888 3.22996968935803 3.51894658748098 3.85139401081056 4.12149198199145 4.395527419649 4.67712020085064
15.7610855582253 15.8291457460895 15.9126327262799 16.0113051456273 16.1248852642037 16.2530599089973 16.3954871509819 16.5517996048441 16.7216049426034 16.9044995393225 17.1000636311675 17.3078667431855 17.5274720925396 17.7584433350966 18.0003445681264 18.2527388616579 18.5151958878725 18.7363061467913 18.3408171865914 17.9341997972365 17.5324125529922 17.135794081808 16.7447114747287 16.3595643948599 15.9807790610538 15.6088199862698 15.2441854285546 14.8874154604904 14.5390875686592 14.1998242816881 13.8702896498202 13.5511945269076 13.2432924614448 12.9473832183471 12.6643066904181 12.2688452539042 11.7802615629396 11.2926767435702 10.8062262188989 10.3210714541541 9.83740325911619 9.35545205783348 8.87549845260665 8.39788320078556 7.92303050689773 7.45146801302538 6.98386289196988 6.5210651290823 6.06417622427281 5.61463777337121 5.17436612012363 4.74594070619513 4.33287546440491 3.94000362428813 3.57398997693856 3.24393793511181 2.96189558906042 2.74272074541891 2.60236005800839 2.55385699102108 2.60236005800839 2.74272074541891 2.96189558906042 3.24393793511181 3.57398997693856 3.94000362428813 4.33287546440491 4.74594070619513 5.17436612012363 5.61463777337121 6.06417622427281 6.5210651290823 6.98386289196988 7.45146801302538 7.92303050689773 8.39788320078556 8.74850992260657 8.59571732137931 8.46605729609566 8.3050188912825 8.15617832182217 8.03574423166305 7.94500657026922 7.88499108388542 7.65811863591139 7.3618376126702 7.08847804262291 6.84078853292491 6.62165065608141 6.43398295989413 6.28060712132936 6.16408431780551 6.03384587695769 5.57290228266924 5.11929323387495 4.67515428948882 4.24345928612407 3.82841824165977 3.43607030494697 3.07362991236472 2.73804423106798 2.45896731157804 2.25746931433441 2.15544676498817 2.16702024737804 2.15579110433746 1.94859493201289 1.69456345793536 1.31187638603723 0.958574587419834 0.683918885458567 0.39486685844427 0.273489709504911 0.367975105707172 0.100000001490116 0 0.250939991599053 0.0538570431856855 0.318701503190356 0.464870382415322 0.388429055324674 0 0.332613198030588 0.340101162744406 0.153857044675802 0.52531287553964 1.01296715490909 1.50868567216846 1.88303300365306 2.16709105154136 2.39275387868215 2.01863806156211 1.66830530748644 1.390188211233 1.25784468308462 1.28929942920019 1.44333950754269 1.68339242390013 2.01863806156211 2.37821350388355 2.77600082539193 2.68384286175873 2.65574123832735 2.72085991358472 2.61375392917423 2.48519397180126 2.33238854134855 2.25607542116228 2.27374461058081 2.39168367728506 2.26742301918581 1.81411416637681 1.3930644965855 1.02930022740811 0.7669509436114 0.653857046964232 0.719699365930358 0.746916937980132 0.459537489949738 0.273489709504911 0.0461429583044306 0.428415839999582 0.83114609090468 1.20624526877803 1.51300561547093 1.7914069107842 1.74614296129521 1.74900639534403 1.74614296129521 1.7914069107842 1.88900900272842 2.05395218312837 2.20364632481219 2.35273814394487 2.54670554238621 2.81710152127105 3.14426030598694 3.44086093637747 3.69997114418663 3.97847616460958 4.28701569880148
15.2647220224483 15.334984835453 15.4211475226206 15.5229449450024 15.6400724416793 15.772187187271 15.918917611556 16.0798623522587 16.2546006869053 16.4426905319364 16.6436816009744 16.8571112859257 17.0825127076986 17.3194194435023 17.5673647663453 17.8258909125559 18.0945425992345 18.3728743844251 18.6129684137497 18.2329980046543 17.8379414896871 17.4482690335643 17.0643508140209 16.6865826819485 16.315390701616 15.9512360125805 15.5946102719772 15.2460425409012 14.90609783336 14.5753796730956 14.2545306084469 13.9442299422389 13.645200255403 13.3410485525631 12.8677578570303 12.3826154311335 11.8987038648993 11.4161787593414 10.9352238283298 10.4560562989469 9.97893244036054 9.50416074567586 9.03211119945483 8.56323608896254 8.09808440282066 7.63733769038086 7.18184301025812 6.73266772857884 6.29116348246588 5.85906570439298 5.43861593243974 5.03273365304951 4.64523951938088 4.28112824856578 3.9468766440726 3.65069655079748 3.40254631267127 3.21357728336558 3.09465724259609 3.05398716565827 3.09465724259609 3.21357728336558 3.40254631267127 3.65069655079748 3.9468766440726 4.28112824856578 4.64523951938088 5.03273365304951 5.43861593243974 5.85906570439298 6.29116348246588 6.73266772857884 7.18184301025812 7.63733769038086 8.09808440282066 8.56323608896254 9.03211119945483 9.07702969893744 8.93757055482076 8.77948435441707 8.63073343945528 8.3186316488436 7.95295774516572 7.60259274601869 7.26975203379185 6.95695056742944 6.66700990912075 6.40303664380848 6.16836539562444 5.96645578429403 5.80073018642722 5.67436079122618 5.59001751752089 5.39080556888339 4.92043992592631 4.4565301433707 4.00132095784466 3.55815181611169 3.13213508960987 2.73130509380756 2.366566614434 2.03720841315325 1.78878097636355 1.6581296980986 1.67315194358914 1.8302543616914 2.09769146196034 2.01873169540305 1.66522721341672 1.34994759810764 1.09991821306285 0.811689878169132 0.760618362942622 0.400000005960464 0 0.253987224951556 0.0460127835411535 0.122362233697119 0.324797466837497 0.746132521240534 0.562583278186849 0.212744653087963 0.119059115649519 0.428370405038236 0.653987221679015 0.82378693884218 1.19559461793839 1.63700677884399 2.10474376977073 2.5628997790902 2.72566985186274 2.37436371672288 2.07054940489482 1.8538426172532 1.75683786445617 1.77947800785316 1.92027026010726 2.10661600050901 2.38500618882249 2.72566985186274 3.08386911599034 3.17925699521832 3.15557257457756 3.21056405829213 3.08808221787522 2.96402170670713 2.81860938013074 2.75580275068414 2.770284161834 2.86786324011759 2.49900762347415 2.09636182565988 1.73599417455867 1.43634166174224 1.22145609742542 1.1539872538579 1.19241145228782 1.12729808611232 0.905301064261938 0.605974454540184 0.25558660937883 0.200000002980232 0.538234410676696 0.812085044838682 1.09851847408349 1.30873181843484 1.24601278665802 1.25002545454413 1.24601278665802 1.30873181843484 1.40426183068874 1.61941818332307 1.72033921938695 1.88119740437825 2.1188100132894 2.43716363746121 2.75779040131966 3.00713863698262 3.28349384265797 3.58212346676125 3.92197026900067
14.768612811736 14.8412250568425 14.9302371115797 15.0353587448232 15.1562537471101 15.2925501518294 15.4438377219591 15.6096816269165 15.7896238674307 15.9831878083149 16.1898833844092 16.4092161997527 16.6406858558336 16.883794377593 17.1380434758395 17.402947651813 17.6780269717333 17.9628148532607 18.2568551259398 18.5158165448408 18.1521105320653 17.7693297803062 17.3924994625272 17.0220136818199 16.6582984950049 16.301805943708 15.953019024704 15.6124554260807 15.2806639481406 14.9582294737444 14.6457695911839 14.3439357385504 13.960088754724 13.4771679374372 12.9955401116231 12.5153520196879 12.0367774659563 11.5600175522703 11.0853050087906 10.6129139327113 10.1431715464831 9.67646090177132 9.21324428374209 8.75407473368784 8.29962501829421 7.85071514594289 7.40835037343203 6.97377840962146 6.54854969324719 6.13460694296038 5.73439451010265 5.35099434465443 4.98828373298766 4.65110591586068 4.34540828712545 4.07827779194118 3.85773602151297 3.69214487760843 3.58912223906575 3.55411734029545 3.58912223906575 3.69214487760843 3.85773602151297 4.07827779194118 4.34540828712545 4.65110591586068 4.98828373298766 5.35099434465443 5.73439451010265 6.13460694296038 6.54854969324719 6.97377840962146 7.40835037343203 7.85071514594289 8.29962501829421 8.75407473368784 9.21324428374209 9.55999239871669 9.20612124803978 8.79218944166724 8.38764084858559 7.99389883335111 7.61264204227948 7.24584118162629 6.89580191047841 6.56520713900888 6.2571397932218 5.97508517668547 5.72289147158117 5.50466407718664 5.32458304296379 5.18662341202393 5.09421015936942 5.04984522116726 4.76597679321439 4.28538181789108 3.80978197724891 3.34131082651204 2.88344254047831 2.4421418372893 2.02824201301166 1.65962091733438 1.34302594434123 1.16323685819519 1.184569738936 1.39780450332557 1.73333222377367 2.13420022506058 2.04376223631445 1.79624149732913 1.48779446768619 1.28955257934506 1.00906397836025 0.606071600113752 0.45411739464063 0.606071600113752 0.45411739464063 0.496624323046482 0.719935651223657 1.02949045205266 0.893634825885947 0.520844104607192 0.122416153835888 0.179130174513109 0.619370332170782 1.1107292673968 1.52743470071994 1.89302707466141 2.30951365769342 2.75391283032422 3.08094173740735 2.76439490843113 2.50829115553654 2.33264009561811 2.25633551407861 2.27400267497885 2.39192897654273 2.55778210387425 2.79152064695468 3.08916050049724 3.43276954544572 3.67594939842097 3.65548566668968 3.70305808919673 3.5694655922718 3.43504509038469 3.30898190819759 3.2556539593779 3.26791988658674 3.19364996311598 2.80163340252743 2.44297633103303 2.12549351239048 1.88326154497845 1.70183493276667 1.65411742865026 1.68112570959678 1.52669992598556 1.05917296275213 0.590851570235038 0.100000001490116 0.122416153835888 0.119005195510749 0.400316282103563 0.737176373300211 0.843325659518249 0.745882607112524 0.752585154883119 0.745882607112524 0.843325659518249 0.935931959675845 1.14588264287531 1.25037684275581 1.42927136661573 1.73014876732776 2.06368830907739 2.32297027574286 2.59424412962521 2.87836027153362 3.21484964485197 3.56829591345341
14.272783485738 14.3479050308032 14.4399589128912 14.5486234196938 14.6735298345637 14.8142681087947 14.9703896913943 15.1414211548222 15.3268610596694 15.5261948893838 15.7388946637076 15.9644243679087 16.2022497013221 16.4518375912548 16.7126597021353 16.9842005637375 17.2659536939833 17.5574256381718 17.8581414664932 18.1676441259024 18.4452648873412 18.0985154208193 17.728683152695 17.3653737298645 17.0090007229173 16.6600132314406 16.3188842778953 15.9861172402888 15.6622437515444 15.3478275454487 15.0371650380538 14.5752946028708 14.0957157605754 13.6176064239195 13.1411255012005 12.6664578929702 12.1938152026614 11.7234424123076 11.2556241219347 10.7906926963004 10.3290378016369 9.87111923974693 9.41748117210218 8.96877350575787 8.52577516809932 8.0894240758253 7.66085555621809 7.2414520192238 6.83290062986546 6.43726833370859 6.05708642543666 5.6954499086366 5.35611658765353 5.04359020565469 4.76315110572284 4.5207752559218 4.32287224753203 4.1757712582275 4.0849676956571 4.05424751493264 4.0849676956571 4.1757712582275 4.32287224753203 4.5207752559218 4.76315110572284 5.04359020565469 5.35611658765353 5.6954499086366 6.05708642543666 6.43726833370859 6.83290062986546 7.2414520192238 7.66085555621809 8.0894240758253 8.52577516809932 8.96877350575787 9.41748117210219 9.37580733342942 8.94179551891048 8.51502483659337 8.09663948385974 7.68800846655738 7.29077378443624 6.90690006272093 6.53874170513406 6.18910414085051 5.86130140026977 5.55919832899181 5.28720260310926 5.050181890324 4.8532636906063 4.70149172988527 4.59933939634085 4.55015053541596 4.55015053541596 4.16755903514361 3.67675464544874 3.18880715184892 2.70526122291361 2.22897918627834 1.76583741793819 1.3296020932177 0.953063852708487 0.676174487030341 0.71234386972298 1.02883072498072 1.45223353079758 1.91290142516346 2.3894128573108 2.18363619514568 1.92816332508501 1.69478267245268 1.31215979030966 1.03487337776157 0.954247555758921 1.03487337776157 0.954247555758921 0.975035387033837 1.18383395697839 1.40466990345307 1.18453130467876 0.703251513320889 0.210800684794297 0.100000001490116 0.600000023841858 1.08754093088004 1.56555822523564 2.04964813464567 2.53990150098768 2.99804345215872 3.42614089712365 3.18535837260082 2.96584260500484 2.81886374378641 2.75606292739789 2.77054297544305 2.86811322396142 3.02440096190522 3.22447941986 3.48533321225723 3.79444433098456 4.1399031405446 4.15545091315286 4.19480059273368 4.05539113378111 3.91210573292755 3.80189914871693 3.75557953893503 3.76621695074591 3.50768409532023 3.15005481671575 2.82356754120309 2.55385636567238 2.33477026004216 2.19108781424228 2.15424754890149 2.00655424462107 1.50872450947957 1.01302501656233 0.525424622192998 0.154247568965619 0.340274271804637 0.212806113258491 0.0457524340146134 0.245752440403668 0.34575244252672 0.245752440403668 0.265983142083554 0.245752440403668 0.34575244252672 0.530052664921641 0.645752440812362 0.772212469615151 1.02337858653067 1.37484454527681 1.65553214468127 1.89741473459129 2.17681741050618 2.50777349680692 2.86117347415468 3.2195698969508
