NCOLS 266
NROWS 26
XLLCORNER 23.5
YLLCORNER 18
CELLSIZE 0.5 
NODATA_value -3.4e+38 
16.4414157867432 10.1607131958008 6.55498266220093 8.66311359405518 6.20644474029541 7.30139303207397 17.9393844604492 12.3868675231934 31.7892417907715 38.6465225219727 37.7051010131836 26.5139465332031 31.017578125 7.51838207244873 6.25004529953003 1.07623827457428 8.82659816741943 27.3149127960205 63.1388244628906 134.060516357422 96.9546508789062 111.502166748047 168.172897338867 235.41731262207 264.195861816406 53.232292175293 86.1782608032227 71.0684432983398 36.5851516723633 49.9408302307129 67.2801895141602 48.7282371520996 12.6575698852539 31.7327079772949 43.744457244873 33.5351409912109 29.2043514251709 29.4164848327637 19.8690090179443 26.51877784729 26.1016883850098 36.1001014709473 34.0424919128418 40.308422088623 32.9706573486328 18.1252517700195 11.5029306411743 10.9893188476562 5.07815217971802 3.05248522758484 2.55183410644531 6.7758150100708 140.65901184082 302.499786376953 594.460571289062 404.261108398438 366.624908447266 242.939422607422 278.356170654297 390.34375 272.701202392578 143.245895385742 321.002044677734 296.870178222656 183.796264648438 299.925994873047 315.698425292969 647.407897949219 305.812774658203 48.7575149536133 173.785079956055 108.029884338379 96.2099533081055 135.152160644531 314.074432373047 7.03311347961426 15.0136375427246 89.3359527587891 65.4844055175781 39.6827201843262 43.5874938964844 116.693809509277 37.9235649108887 33.9411430358887 33.4304695129395 288.341552734375 330.587738037109 298.919921875 312.634185791016 219.73323059082 147.684432983398 138.365966796875 227.350814819336 462.213043212891 34.547664642334 4.48802614212036 5.61381959915161 5.2456521987915 4.99307775497437 5.08917570114136 5.79488706588745 3.7735583782196 6.25548839569092 5.84830713272095 7.52994108200073 7.72549819946289 224.216018676758 583.273864746094 532.0400390625 575.279968261719 1092.79138183594 -3.4e+38 985.929321289062 363.591796875 232.215698242188 224.067169189453 317.8466796875 271.52587890625 -3.4e+38 299.857940673828 -3.4e+38 -3.4e+38 289.533325195312 216.912902832031 210.30029296875 338.300842285156 313.327423095703 207.753128051758 209.472274780273 231.602554321289 262.408569335938 208.446350097656 206.231994628906 108.483520507812 250.693832397461 331.847503662109 280.018737792969 195.49494934082 146.332015991211 238.321624755859 323.383666992188 -3.4e+38 425.278350830078 364.566650390625 438.139526367188 393.000854492188 268.787261962891 493.874908447266 406.671173095703 271.037628173828 468.480895996094 343.869445800781 238.940963745117 426.011383056641 284.019561767578 437.859436035156 663.940734863281 611.604309082031 709.629699707031 909.19873046875 145.629745483398 61.7310523986816 73.9776840209961 37.4207992553711 38.9496879577637 62.1319580078125 95.9225845336914 177.712936401367 140.332733154297 216.090927124023 269.063629150391 448.960571289062 385.439331054688 293.652038574219 391.282165527344 218.598052978516 167.626113891602 22.3742599487305 29.5231590270996 31.7476940155029 6.58988094329834 9.39800834655762 28.0958194732666 116.622917175293 165.732803344727 286.943298339844 144.625671386719 52.8868217468262 117.502738952637 99.6279602050781 163.411727905273 111.814720153809 97.8143844604492 51.0120582580566 0.577350258827209 3.24037027359009 -3.4e+38 -3.4e+38 -3.4e+38 -3.4e+38 -3.4e+38 -3.4e+38 -3.4e+38 -3.4e+38 -3.4e+38 -3.4e+38 -3.4e+38 -3.4e+38 -3.4e+38 -3.4e+38 -3.4e+38 -3.4e+38 -3.4e+38 -3.4e+38 -3.4e+38 -3.4e+38 -3.4e+38 -3.4e+38 -3.4e+38 -3.4e+38 -3.4e+38 -3.4e+38 -3.4e+38 -3.4e+38 -3.4e+38 -3.4e+38 -3.4e+38 -3.4e+38 -3.4e+38 -3.4e+38 -3.4e+38 -3.4e+38 -3.4e+38 -3.4e+38 -3.4e+38 -3.4e+38 -3.4e+38 -3.4e+38 -3.4e+38 -3.4e+38 -3.4e+38 -3.4e+38 -3.4e+38 -3.4e+38 -3.4e+38 -3.4e+38 -3.4e+38 -3.4e+38 -3.4e+38 -3.4e+38 -3.4e+38 -3.4e+38 -3.4e+38 -3.4e+38 -3.4e+38 -3.4e+38 -3.4e+38 -3.4e+38 -3.4e+38 -3.4e+38 -3.4e+38 -3.4e+38 -3.4e+38 -3.4e+38 -3.4e+38 -3.4e+38
19.4784259796143 20.567663192749 22.9068565368652 13.6673889160156 11.0866069793701 12.65833568573 34.8382911682129 132.38134765625 122.286003112793 92.8586807250977 65.3508071899414 38.5678787231445 31.7905101776123 57.9394989013672 46.9790191650391 54.3922958374023 88.9831390380859 113.947547912598 141.678588867188 103.803153991699 98.7717971801758 88.2086334228516 135.212799072266 459.703674316406 179.835571289062 22.8592681884766 35.3640785217285 49.2985954284668 67.2955703735352 23.4810428619385 35.2304649353027 54.8879318237305 27.3080062866211 66.7400741577148 37.9586906433105 30.1301956176758 29.2665634155273 23.3403644561768 27.3204727172852 32.0016555786133 23.6498699188232 24.2410564422607 39.0037727355957 28.8280773162842 36.7334632873535 37.8868522644043 27.4905605316162 23.1641540527344 15.1200733184814 10.5804643630981 5.40372371673584 49.6362495422363 48.5583343505859 142.515243530273 388.392272949219 270.618225097656 547.908386230469 330.230560302734 372.616058349609 193.534896850586 269.802062988281 228.523513793945 249.257751464844 304.939392089844 301.845458984375 267.346435546875 233.544479370117 408.975555419922 709.090576171875 43.2167549133301 74.5309600830078 145.624755859375 233.919494628906 191.820068359375 371.380523681641 8.5361795425415 24.6583347320557 44.9948692321777 51.8250999450684 88.2433395385742 109.72184753418 82.2450714111328 37.8656616210938 63.4162940979004 52.2607917785645 266.689636230469 222.228530883789 383.132873535156 720.654907226562 390.12158203125 219.629867553711 145.214630126953 138.556793212891 468.148529052734 36.3753852844238 5.11154317855835 4.00941467285156 5.22565984725952 4.91070413589478 4.01152372360229 4.68290758132935 5.08172559738159 4.36189222335815 5.26496934890747 6.68504428863525 6.44444227218628 12.1139965057373 55.1378021240234 208.645401000977 507.441192626953 434.154541015625 474.398956298828 1248.03356933594 -3.4e+38 847.307250976562 -3.4e+38 -3.4e+38 329.01513671875 184.228744506836 252.296356201172 -3.4e+38 -3.4e+38 261.648895263672 -3.4e+38 268.923309326172 326.788818359375 249.704284667969 202.841201782227 -3.4e+38 203.577819824219 230.506408691406 218.133895874023 189.041610717773 423.629211425781 456.696014404297 -3.4e+38 353.809631347656 236.532119750977 297.17041015625 -3.4e+38 -3.4e+38 540.483825683594 745.6611328125 750.582946777344 568.135986328125 428.511138916016 586.182983398438 490.574829101562 477.710235595703 215.277694702148 415.536773681641 547.875366210938 238.80598449707 318.139251708984 417.617889404297 402.811004638672 395.609680175781 774.9794921875 777.839782714844 346.322875976562 52.1379051208496 80.8424072265625 20.2378883361816 51.6731834411621 24.4291801452637 44.0829925537109 216.810974121094 135.037445068359 138.392730712891 434.452270507812 193.745880126953 337.458679199219 366.367828369141 366.108123779297 363.902008056641 257.699340820312 46.066047668457 4.7343692779541 2.10684180259705 2.07062435150146 4.76348161697388 10.166163444519 41.7870254516602 47.6665534973145 187.818695068359 123.854331970215 54.8800010681152 199.018569946289 180.991958618164 238.526702880859 247.473449707031 258.383697509766 206.921798706055 68.5286331176758 -3.4e+38 63.5268783569336 -3.4e+38 49.8680877685547 -3.4e+38 -3.4e+38 -3.4e+38 -3.4e+38 -3.4e+38 -3.4e+38 -3.4e+38 -3.4e+38 -3.4e+38 -3.4e+38 -3.4e+38 -3.4e+38 -3.4e+38 -3.4e+38 -3.4e+38 -3.4e+38 -3.4e+38 -3.4e+38 -3.4e+38 -3.4e+38 -3.4e+38 -3.4e+38 -3.4e+38 -3.4e+38 -3.4e+38 -3.4e+38 -3.4e+38 -3.4e+38 -3.4e+38 -3.4e+38 -3.4e+38 -3.4e+38 -3.4e+38 -3.4e+38 -3.4e+38 -3.4e+38 -3.4e+38 -3.4e+38 -3.4e+38 -3.4e+38 -3.4e+38 -3.4e+38 -3.4e+38 -3.4e+38 -3.4e+38 -3.4e+38 -3.4e+38 -3.4e+38 -3.4e+38 -3.4e+38 -3.4e+38 -3.4e+38 -3.4e+38 -3.4e+38 -3.4e+38 -3.4e+38 -3.4e+38 -3.4e+38 -3.4e+38 -3.4e+38 -3.4e+38 -3.4e+38 -3.4e+38 -3.4e+38 -3.4e+38 -3.4e+38 -3.4e+38 -3.4e+38
9.6320161819458 20.6198444366455 44.1991767883301 12.9567089080811 22.5953941345215 45.1944236755371 78.2556457519531 17.6131534576416 32.1020278930664 52.3017387390137 39.5266799926758 26.3020992279053 47.5669822692871 53.6707763671875 88.3017578125 81.9796524047852 95.650993347168 197.57453918457 180.952056884766 123.031951904297 82.3895797729492 114.489959716797 196.370635986328 357.282043457031 167.994873046875 63.8525810241699 93.5789566040039 126.92350769043 92.4286804199219 51.0247039794922 41.2877616882324 55.1748733520508 42.4347839355469 49.5729637145996 20.992977142334 40.3963470458984 28.9833145141602 34.093864440918 42.3241729736328 34.4250984191895 23.7723865509033 22.3871192932129 18.4768371582031 34.2088432312012 19.8956851959229 26.8630123138428 34.0998077392578 27.684814453125 28.445484161377 9.23475933074951 -3.4e+38 -3.4e+38 -3.4e+38 -3.4e+38 196.460205078125 342.349517822266 565.635498046875 258.168609619141 158.024627685547 243.662673950195 336.379516601562 213.574005126953 167.347473144531 82.7330856323242 311.2763671875 283.339813232422 330.781005859375 342.798431396484 573.302856445312 260.078552246094 63.3209114074707 122.234741210938 400.337188720703 203.760925292969 309.662139892578 368.5458984375 44.0575752258301 72.4676895141602 135.391128540039 213.981796264648 143.144805908203 199.940139770508 149.663040161133 40.9776954650879 27.3033027648926 208.16276550293 214.352401733398 558.381896972656 241.527618408203 368.912780761719 165.023361206055 203.107635498047 240.907852172852 287.338500976562 4.52567481994629 3.25095152854919 3.83351135253906 4.22876358032227 4.54152488708496 4.44025850296021 3.81695175170898 3.82680678367615 4.47717332839966 4.49041843414307 4.05001831054688 4.38456583023071 6.34616804122925 8.76475811004639 13.3272438049316 242.074462890625 463.24169921875 365.727355957031 267.102691650391 572.93896484375 991.2939453125 1140.33361816406 962.976745605469 -3.4e+38 579.039611816406 308.919586181641 214.413055419922 -3.4e+38 -3.4e+38 -3.4e+38 237.590194702148 289.375213623047 251.916488647461 257.406494140625 362.625457763672 302.040802001953 304.547485351562 399.815673828125 376.299621582031 419.453338623047 544.630676269531 479.224792480469 454.423400878906 232.439544677734 326.225830078125 483.12353515625 517.9169921875 512.922424316406 577.668273925781 -3.4e+38 641.012573242188 521.194274902344 -3.4e+38 734.638916015625 439.334930419922 573.674438476562 388.428100585938 589.407592773438 -3.4e+38 313.794097900391 327.445434570312 478.127807617188 531.781799316406 759.811889648438 490.037933349609 462.489013671875 43.9367942810059 91.0475234985352 86.6208267211914 31.5593223571777 71.2938995361328 95.2449035644531 135.315216064453 156.937652587891 454.18798828125 313.551696777344 217.527603149414 190.52685546875 280.680328369141 301.390441894531 291.622497558594 158.548965454102 35.222339630127 3.06161427497864 26.4601936340332 20.358434677124 83.2797927856445 114.863433837891 122.347129821777 135.819107055664 155.392349243164 106.435745239258 86.507942199707 142.6318359375 184.108825683594 199.582092285156 202.676132202148 150.642974853516 192.362411499023 141.280288696289 168.896881103516 192.323699951172 85.3344039916992 29.6223945617676 -3.4e+38 -3.4e+38 -3.4e+38 -3.4e+38 -3.4e+38 -3.4e+38 -3.4e+38 -3.4e+38 -3.4e+38 -3.4e+38 -3.4e+38 -3.4e+38 -3.4e+38 -3.4e+38 -3.4e+38 -3.4e+38 -3.4e+38 -3.4e+38 -3.4e+38 -3.4e+38 -3.4e+38 -3.4e+38 -3.4e+38 -3.4e+38 -3.4e+38 -3.4e+38 -3.4e+38 -3.4e+38 -3.4e+38 -3.4e+38 -3.4e+38 -3.4e+38 -3.4e+38 -3.4e+38 -3.4e+38 -3.4e+38 -3.4e+38 -3.4e+38 -3.4e+38 -3.4e+38 -3.4e+38 -3.4e+38 -3.4e+38 -3.4e+38 -3.4e+38 -3.4e+38 -3.4e+38 -3.4e+38 -3.4e+38 -3.4e+38 -3.4e+38 -3.4e+38 -3.4e+38 -3.4e+38 -3.4e+38 -3.4e+38 -3.4e+38 -3.4e+38 -3.4e+38 -3.4e+38 -3.4e+38 -3.4e+38 -3.4e+38 -3.4e+38 -3.4e+38 -3.4e+38 -3.4e+38 -3.4e+38
11.111834526062 14.8017549514771 14.0853185653687 30.4419212341309 48.3450889587402 75.5337448120117 37.1193923950195 17.4908847808838 51.210075378418 37.919734954834 24.575532913208 18.4084606170654 40.6372566223145 76.2089309692383 28.3886032104492 109.425842285156 130.194412231445 349.848541259766 95.8097839355469 272.787811279297 224.065811157227 186.86882019043 580.592651367188 301.742431640625 228.421798706055 49.6173400878906 115.448684692383 107.971702575684 55.806022644043 40.4941062927246 42.9276885986328 46.7336959838867 88.2089767456055 42.2292823791504 20.4693145751953 18.0650157928467 36.8009719848633 38.5024032592773 32.4380874633789 22.126049041748 34.749828338623 24.9506912231445 19.4344329833984 17.8343315124512 21.4557094573975 15.4976100921631 28.1628494262695 30.0216865539551 46.5205230712891 -3.4e+38 -3.4e+38 -3.4e+38 -3.4e+38 -3.4e+38 6.81068086624146 377.464904785156 202.22087097168 459.001525878906 287.465179443359 259.757080078125 312.983612060547 301.760009765625 224.851150512695 180.519149780273 146.041488647461 241.422897338867 466.012847900391 433.660888671875 440.379547119141 320.302825927734 143.160293579102 50.4387474060059 272.490692138672 177.013641357422 187.620849609375 297.236145019531 155.136413574219 130.488571166992 214.143524169922 209.27555847168 243.009582519531 247.706573486328 101.794174194336 48.6008453369141 197.949081420898 238.130142211914 254.526931762695 630.36865234375 41.2423362731934 157.58137512207 234.677581787109 146.27702331543 237.591354370117 45.0063400268555 3.19624352455139 3.86034226417542 4.42534732818604 4.27753925323486 4.14507007598877 4.77909803390503 11.3102998733521 6.19790315628052 3.63497948646545 3.62220668792725 3.42250323295593 3.54919791221619 4.30656003952026 7.2298059463501 6.54319667816162 10.8174304962158 54.8095512390137 464.699798583984 600.8984375 477.365692138672 418.671081542969 656.762268066406 687.926391601562 584.640625 -3.4e+38 386.833465576172 645.788330078125 348.021392822266 292.590972900391 308.359649658203 214.054351806641 294.197906494141 288.995697021484 361.161834716797 363.881225585938 385.114593505859 388.845306396484 348.332275390625 460.282104492188 471.496978759766 493.5693359375 496.547302246094 507.931854248047 454.273559570312 625.950500488281 535.556518554688 548.679809570312 578.117370605469 902.947692871094 878.760070800781 619.896179199219 567.341369628906 700.806030273438 494.067230224609 735.509033203125 607.59912109375 461.521789550781 555.661926269531 369.565887451172 237.279678344727 356.125274658203 616.464172363281 467.359161376953 807.030395507812 561.926086425781 550.392333984375 262.562683105469 58.5041084289551 32.2348403930664 37.7947387695312 69.1101684570312 86.3327560424805 176.747680664062 290.614166259766 365.096160888672 238.415832519531 245.993591308594 180.298416137695 184.147964477539 172.174713134766 186.749755859375 129.436538696289 39.6915702819824 2.96802806854248 3.15456295013428 60.5932846069336 190.817611694336 183.729232788086 244.078002929688 244.276809692383 127.182464599609 30.7241764068604 27.3893413543701 77.5888519287109 101.378852844238 170.356002807617 232.810440063477 141.698104858398 173.74934387207 152.313568115234 179.510864257812 199.001342773438 101.075912475586 -3.4e+38 -3.4e+38 -3.4e+38 -3.4e+38 -3.4e+38 -3.4e+38 -3.4e+38 -3.4e+38 -3.4e+38 -3.4e+38 -3.4e+38 -3.4e+38 -3.4e+38 -3.4e+38 -3.4e+38 -3.4e+38 -3.4e+38 -3.4e+38 -3.4e+38 -3.4e+38 -3.4e+38 -3.4e+38 -3.4e+38 -3.4e+38 -3.4e+38 -3.4e+38 -3.4e+38 -3.4e+38 -3.4e+38 -3.4e+38 -3.4e+38 -3.4e+38 -3.4e+38 -3.4e+38 -3.4e+38 -3.4e+38 -3.4e+38 -3.4e+38 -3.4e+38 -3.4e+38 -3.4e+38 -3.4e+38 -3.4e+38 -3.4e+38 -3.4e+38 -3.4e+38 -3.4e+38 -3.4e+38 -3.4e+38 -3.4e+38 -3.4e+38 -3.4e+38 -3.4e+38 -3.4e+38 -3.4e+38 -3.4e+38 -3.4e+38 -3.4e+38 -3.4e+38 -3.4e+38 -3.4e+38 -3.4e+38 -3.4e+38 -3.4e+38 -3.4e+38 -3.4e+38 -3.4e+38 -3.4e+38 -3.4e+38
12.40807056427 10.1800947189331 29.578145980835 13.4724321365356 16.8975467681885 41.5649185180664 41.6789245605469 37.9936256408691 49.3228874206543 27.1114883422852 32.9257278442383 29.0101509094238 21.5369491577148 37.1947898864746 44.2311592102051 68.1220474243164 75.6845779418945 308.881439208984 204.411636352539 229.983352661133 373.660278320312 288.967254638672 759.299438476562 378.361389160156 169.529159545898 42.284107208252 66.1083831787109 65.3356018066406 51.7091255187988 70.4767303466797 44.7078247070312 39.1602363586426 15.2347564697266 27.2201061248779 23.2109146118164 22.2593822479248 14.6436223983765 19.5458469390869 35.5602073669434 30.6974849700928 27.7137107849121 35.3951530456543 21.3474159240723 22.1786727905273 14.9858322143555 23.2279891967773 12.3476572036743 20.5628643035889 40.8248634338379 29.627269744873 -3.4e+38 -3.4e+38 -3.4e+38 -3.4e+38 -3.4e+38 275.302764892578 228.363479614258 400.797027587891 434.426055908203 368.325439453125 193.532150268555 328.180755615234 443.873474121094 229.026351928711 228.384002685547 418.724456787109 312.956695556641 276.385681152344 631.574462890625 652.263000488281 211.461547851562 51.8225708007812 78.5077362060547 254.818161010742 244.667388916016 460.954254150391 153.271759033203 60.714656829834 115.043235778809 96.4413299560547 109.940162658691 174.313598632812 230.364868164062 341.237915039062 330.03662109375 138.937927246094 329.841735839844 570.736389160156 7.55023574829102 29.0166568756104 225.308120727539 178.660369873047 108.016479492188 4.38920068740845 3.02663564682007 4.09371280670166 3.38221478462219 4.82053804397583 8.74216461181641 18.2546157836914 5.3495512008667 10.5858392715454 14.4168949127197 16.7933788299561 15.3631114959717 9.21852779388428 3.21066284179688 9.8116283416748 5.65976858139038 7.51283645629883 7.55370712280273 10.2520141601562 12.1461524963379 72.0437850952148 399.619201660156 385.157409667969 604.105712890625 762.609924316406 846.245300292969 986.952453613281 -3.4e+38 -3.4e+38 656.498168945312 479.844940185547 363.991516113281 331.298675537109 359.134582519531 -3.4e+38 -3.4e+38 405.710235595703 330.611877441406 268.2265625 378.565307617188 350.826049804688 309.033752441406 309.180725097656 -3.4e+38 273.822814941406 428.849273681641 509.440734863281 600.936950683594 748.340637207031 695.49072265625 867.381896972656 671.38427734375 662.59912109375 725.226196289062 714.699096679688 326.820953369141 786.701354980469 700.236633300781 595.228210449219 555.510009765625 401.230529785156 494.502502441406 582.9697265625 717.596740722656 677.260192871094 623.814025878906 671.69091796875 293.862762451172 286.050506591797 67.1574630737305 72.5763092041016 179.581024169922 302.11376953125 279.231414794922 286.38671875 236.624145507812 219.26091003418 239.928009033203 178.93537902832 115.955055236816 209.480834960938 116.380493164062 164.718566894531 64.3929214477539 26.623685836792 25.5823059082031 78.3446807861328 184.118179321289 149.125045776367 286.974273681641 226.605911254883 93.2199478149414 3.25670528411865 25.388204574585 95.910774230957 234.041427612305 173.62548828125 229.906051635742 274.905944824219 215.654159545898 234.719787597656 256.472473144531 138.562423706055 -3.4e+38 -3.4e+38 -3.4e+38 -3.4e+38 -3.4e+38 -3.4e+38 -3.4e+38 -3.4e+38 -3.4e+38 -3.4e+38 -3.4e+38 -3.4e+38 -3.4e+38 -3.4e+38 -3.4e+38 -3.4e+38 -3.4e+38 -3.4e+38 -3.4e+38 -3.4e+38 -3.4e+38 -3.4e+38 -3.4e+38 -3.4e+38 -3.4e+38 -3.4e+38 -3.4e+38 -3.4e+38 -3.4e+38 -3.4e+38 -3.4e+38 -3.4e+38 -3.4e+38 -3.4e+38 -3.4e+38 -3.4e+38 -3.4e+38 -3.4e+38 -3.4e+38 -3.4e+38 -3.4e+38 -3.4e+38 -3.4e+38 -3.4e+38 -3.4e+38 -3.4e+38 -3.4e+38 -3.4e+38 -3.4e+38 -3.4e+38 -3.4e+38 -3.4e+38 -3.4e+38 -3.4e+38 -3.4e+38 -3.4e+38 -3.4e+38 -3.4e+38 -3.4e+38 -3.4e+38 -3.4e+38 -3.4e+38 -3.4e+38 -3.4e+38 -3.4e+38 -3.4e+38 -3.4e+38 -3.4e+38 -3.4e+38 -3.4e+38
3.9401683807373 7.09995365142822 10.0237503051758 9.90519905090332 11.9291620254517 10.7639665603638 19.8229026794434 23.0122699737549 13.1113815307617 21.1256351470947 44.9441223144531 39.6112098693848 16.0833072662354 18.4436225891113 49.7120399475098 64.5451126098633 98.1214828491211 81.4573822021484 229.389770507812 97.9549865722656 578.825073242188 490.079315185547 115.476539611816 377.28564453125 230.959564208984 142.56494140625 88.2269897460938 66.2436447143555 51.1974296569824 43.0597953796387 26.8899021148682 44.5148162841797 23.924430847168 20.53684425354 29.5480709075928 21.3172187805176 24.1862297058105 9.45362758636475 12.609375 24.8179054260254 27.8435497283936 21.5912208557129 23.3373146057129 14.4443960189819 19.5410671234131 11.5782871246338 11.6204967498779 16.6914710998535 27.9772205352783 42.8856964111328 -3.4e+38 -3.4e+38 -3.4e+38 -3.4e+38 -3.4e+38 141.916000366211 252.271926879883 217.064895629883 248.142074584961 236.282730102539 355.459259033203 152.7802734375 242.67121887207 429.726257324219 363.248291015625 196.575256347656 333.876159667969 427.640777587891 174.246017456055 502.794830322266 333.510955810547 247.998291015625 278.7353515625 308.283325195312 111.75821685791 120.675132751465 427.966827392578 258.425262451172 40.4207878112793 15.6687850952148 75.0232238769531 168.282653808594 67.4352493286133 72.5307083129883 351.4287109375 172.22265625 206.837997436523 479.034759521484 6.56040048599243 3.80091309547424 4.26064586639404 4.38058710098267 2.48727798461914 3.61749315261841 8.48477745056152 5.48352146148682 4.84194087982178 11.2657337188721 17.9982852935791 13.4812831878662 20.2007865905762 26.6405162811279 19.6785202026367 26.22536277771 39.4465065002441 30.1676177978516 27.7806663513184 27.7996959686279 5.29216814041138 6.69826602935791 6.987229347229 6.6871337890625 7.40246200561523 8.23325252532959 9.44762706756592 53.2735404968262 348.204254150391 503.929229736328 630.017944335938 590.040649414062 840.586608886719 1276.11474609375 1450.5380859375 -3.4e+38 869.826782226562 -3.4e+38 602.789489746094 507.722259521484 490.593536376953 361.571105957031 260.140106201172 220.252746582031 -3.4e+38 497.926818847656 512.6748046875 572.814453125 314.208587646484 -3.4e+38 667.880249023438 949.926574707031 772.355529785156 847.543701171875 447.237335205078 613.958984375 776.145935058594 1017.70086669922 893.327941894531 883.785400390625 739.600891113281 652.185302734375 772.817077636719 646.061645507812 418.697265625 619.544677734375 593.174865722656 516.95166015625 563.957458496094 438.800079345703 334.274291992188 644.087768554688 492.756713867188 303.206665039062 188.805862426758 268.414123535156 305.996246337891 246.28662109375 224.082916259766 214.009002685547 141.315170288086 195.631164550781 208.109069824219 152.173797607422 154.946334838867 137.37239074707 173.022369384766 213.252990722656 180.468414306641 99.9339981079102 36.4769821166992 65.8964157104492 169.767852783203 225.108337402344 105.272193908691 21.5161037445068 12.0013418197632 29.8375682830811 35.5606651306152 152.014404296875 212.943344116211 298.373016357422 261.03564453125 260.546600341797 242.785980224609 237.857421875 196.090209960938 117.572555541992 -3.4e+38 -3.4e+38 -3.4e+38 -3.4e+38 -3.4e+38 -3.4e+38 -3.4e+38 -3.4e+38 -3.4e+38 -3.4e+38 -3.4e+38 -3.4e+38 -3.4e+38 -3.4e+38 -3.4e+38 98.1890487670898 -3.4e+38 -3.4e+38 -3.4e+38 -3.4e+38 -3.4e+38 -3.4e+38 -3.4e+38 -3.4e+38 -3.4e+38 -3.4e+38 -3.4e+38 -3.4e+38 -3.4e+38 -3.4e+38 -3.4e+38 -3.4e+38 -3.4e+38 -3.4e+38 -3.4e+38 -3.4e+38 -3.4e+38 -3.4e+38 -3.4e+38 -3.4e+38 -3.4e+38 -3.4e+38 -3.4e+38 -3.4e+38 -3.4e+38 -3.4e+38 -3.4e+38 -3.4e+38 -3.4e+38 -3.4e+38 -3.4e+38 -3.4e+38 -3.4e+38 -3.4e+38 -3.4e+38 -3.4e+38 -3.4e+38 -3.4e+38 -3.4e+38 -3.4e+38 -3.4e+38 -3.4e+38 -3.4e+38 -3.4e+38 -3.4e+38 -3.4e+38 -3.4e+38 -3.4e+38 -3.4e+38 -3.4e+38
9.64191150665283 10.648533821106 9.91633129119873 8.40032386779785 19.8281364440918 9.69095230102539 7.32275009155273 14.7655973434448 26.6463813781738 21.6070442199707 32.1316528320312 21.3077297210693 38.2065162658691 14.1004362106323 50.7769813537598 35.0920372009277 76.8399124145508 80.2956390380859 112.004219055176 164.849044799805 -3.4e+38 -3.4e+38 -3.4e+38 -3.4e+38 359.775939941406 361.540130615234 244.179595947266 142.109436035156 35.903392791748 43.6664505004883 36.5928192138672 22.9223117828369 14.8790130615234 65.8669281005859 33.6009330749512 93.5128555297852 112.512397766113 55.809928894043 16.5861949920654 22.7477283477783 24.2179660797119 23.9393043518066 26.524543762207 27.1186656951904 17.2368144989014 15.2228651046753 20.7300643920898 13.225793838501 28.531946182251 41.3987197875977 11.2181167602539 -3.4e+38 -3.4e+38 -3.4e+38 -3.4e+38 -3.4e+38 -3.4e+38 308.824127197266 279.3173828125 201.449554443359 198.742080688477 195.573059082031 274.313812255859 210.308242797852 399.701416015625 560.311584472656 388.808685302734 125.682464599609 194.30078125 33.5195426940918 118.893241882324 222.212310791016 283.437561035156 283.205047607422 211.69303894043 190.762008666992 150.088287353516 291.432983398438 174.510650634766 96.9605941772461 42.3430786132812 105.513061523438 227.429046630859 335.983764648438 121.171142578125 185.796691894531 210.162689208984 416.332000732422 15.1628341674805 2.83984041213989 6.4854564666748 2.76791477203369 4.14044332504272 15.3040647506714 7.48747587203979 10.527943611145 15.2035541534424 17.1547622680664 31.2204074859619 32.8586311340332 19.4185428619385 11.2780809402466 20.9103927612305 68.5086975097656 61.9531517028809 51.1456184387207 56.8299255371094 13.068507194519 5.46362066268921 4.10822582244873 5.13360977172852 6.39771556854248 5.31102323532104 5.31983518600464 6.10156631469727 4.77006340026855 27.5470447540283 165.860000610352 304.387664794922 491.276947021484 384.240081787109 303.263854980469 395.046051025391 457.467590332031 634.241333007812 1196.40686035156 1211.22265625 1310.63928222656 -3.4e+38 1025.25708007812 969.40185546875 477.725677490234 1038.16662597656 911.449523925781 678.623107910156 884.049621582031 912.96533203125 769.365844726562 1330.6005859375 604.53515625 453.37548828125 539.429809570312 382.576477050781 115.37516784668 22.4754314422607 537.919250488281 824.420776367188 1113.67211914062 702.92333984375 724.123168945312 646.380737304688 581.298278808594 383.039276123047 649.34765625 393.425445556641 452.349395751953 572.973327636719 577.472778320312 381.920959472656 686.0400390625 486.278289794922 362.324554443359 291.571563720703 200.579055786133 205.976928710938 189.708694458008 144.578674316406 126.018867492676 127.699531555176 164.908096313477 325.795745849609 120.873580932617 138.039001464844 180.698394775391 330.850982666016 194.761383056641 176.863250732422 67.5107040405273 32.9308013916016 56.2779083251953 115.154830932617 234.966735839844 103.93482208252 49.8392677307129 151.507568359375 106.659820556641 161.459381103516 213.081619262695 372.698303222656 219.153244018555 186.701080322266 268.290405273438 261.392761230469 249.685012817383 129.570297241211 -3.4e+38 -3.4e+38 -3.4e+38 -3.4e+38 -3.4e+38 -3.4e+38 -3.4e+38 -3.4e+38 -3.4e+38 -3.4e+38 -3.4e+38 -3.4e+38 -3.4e+38 -3.4e+38 -3.4e+38 -3.4e+38 -3.4e+38 -3.4e+38 -3.4e+38 -3.4e+38 -3.4e+38 -3.4e+38 -3.4e+38 -3.4e+38 -3.4e+38 -3.4e+38 -3.4e+38 -3.4e+38 -3.4e+38 -3.4e+38 -3.4e+38 -3.4e+38 -3.4e+38 -3.4e+38 -3.4e+38 -3.4e+38 -3.4e+38 -3.4e+38 -3.4e+38 -3.4e+38 -3.4e+38 -3.4e+38 -3.4e+38 -3.4e+38 -3.4e+38 -3.4e+38 -3.4e+38 -3.4e+38 -3.4e+38 -3.4e+38 -3.4e+38 -3.4e+38 -3.4e+38 -3.4e+38 -3.4e+38 -3.4e+38 -3.4e+38 -3.4e+38 -3.4e+38 -3.4e+38 -3.4e+38 -3.4e+38 -3.4e+38 -3.4e+38 -3.4e+38 -3.4e+38 -3.4e+38 -3.4e+38 -3.4e+38 -3.4e+38 -3.4e+38
15.794960975647 12.7886371612549 12.630163192749 14.6985502243042 37.8805999755859 35.8887367248535 36.0530281066895 54.5998306274414 89.6092834472656 49.4441261291504 74.922119140625 24.4471969604492 37.0482749938965 34.7672080993652 60.5168991088867 88.0441970825195 70.1775894165039 62.5369186401367 130.037628173828 266.315704345703 186.299667358398 -3.4e+38 -3.4e+38 -3.4e+38 140.708679199219 146.728851318359 412.851531982422 141.637283325195 151.468505859375 42.5632476806641 30.4670677185059 67.5890884399414 86.8563690185547 77.0227737426758 70.7572174072266 109.896347045898 66.8547897338867 101.515693664551 40.3012161254883 22.4176692962646 22.7393398284912 30.0045299530029 28.3571453094482 22.720516204834 32.5680999755859 20.5218677520752 27.1723346710205 30.6330661773682 31.093376159668 48.9336357116699 21.2025508880615 9.45470809936523 -3.4e+38 -3.4e+38 -3.4e+38 -3.4e+38 -3.4e+38 -3.4e+38 -3.4e+38 261.716461181641 353.388031005859 351.4189453125 377.737640380859 426.522766113281 311.344512939453 399.035278320312 65.9866180419922 188.960403442383 287.278045654297 161.259704589844 51.2688217163086 14.5495491027832 35.5146141052246 66.4306182861328 168.348907470703 204.585403442383 133.740478515625 121.430282592773 188.128341674805 213.943893432617 153.672012329102 175.719223022461 129.237319946289 163.987564086914 263.638275146484 156.338241577148 241.92138671875 462.698364257812 11.4051027297974 2.05534934997559 18.9807720184326 3.28505086898804 5.49165391921997 31.1207656860352 29.6912612915039 18.4131011962891 25.635124206543 26.5534820556641 25.4587001800537 9.50918197631836 12.2732601165771 21.3344097137451 30.494478225708 35.4003524780273 35.0984191894531 70.6289901733398 50.4198188781738 14.2915477752686 4.33811712265015 5.97848653793335 4.27353858947754 3.6701967716217 5.61042594909668 4.17538213729858 4.80079030990601 6.32583427429199 4.42340993881226 4.21928548812866 4.13425827026367 5.92750787734985 30.5689678192139 112.05118560791 189.75927734375 418.978546142578 518.937377929688 625.234802246094 676.966003417969 679.695922851562 664.452941894531 1011.40423583984 1130.82409667969 824.7392578125 682.435424804688 883.523010253906 902.174926757812 713.714111328125 799.341735839844 693.980041503906 601.85107421875 672.682556152344 623.236572265625 194.823776245117 4.81231117248535 85.9603576660156 458.31005859375 351.700378417969 599.344665527344 748.357238769531 370.447875976562 546.927612304688 628.247741699219 460.399475097656 576.451110839844 660.035278320312 396.197662353516 373.697601318359 585.8896484375 593.449462890625 686.031066894531 590.878295898438 212.653533935547 197.811309814453 191.086883544922 161.566833496094 157.270706176758 163.282287597656 169.191543579102 147.203643798828 157.415222167969 163.695526123047 137.799819946289 124.671508789062 94.0364456176758 284.21337890625 313.346466064453 143.545791625977 132.875366210938 92.0447463989258 148.359985351562 84.616096496582 207.591217041016 249.294052124023 78.876350402832 80.1833724975586 169.28727722168 209.451934814453 172.282028198242 224.650161743164 157.19416809082 139.33740234375 275.352630615234 196.548522949219 234.873992919922 213.282974243164 -3.4e+38 -3.4e+38 -3.4e+38 -3.4e+38 -3.4e+38 -3.4e+38 -3.4e+38 -3.4e+38 -3.4e+38 -3.4e+38 -3.4e+38 -3.4e+38 -3.4e+38 -3.4e+38 -3.4e+38 -3.4e+38 -3.4e+38 -3.4e+38 -3.4e+38 -3.4e+38 -3.4e+38 -3.4e+38 -3.4e+38 -3.4e+38 -3.4e+38 -3.4e+38 -3.4e+38 -3.4e+38 -3.4e+38 -3.4e+38 -3.4e+38 -3.4e+38 -3.4e+38 -3.4e+38 -3.4e+38 -3.4e+38 -3.4e+38 -3.4e+38 -3.4e+38 -3.4e+38 -3.4e+38 -3.4e+38 -3.4e+38 -3.4e+38 -3.4e+38 -3.4e+38 -3.4e+38 -3.4e+38 -3.4e+38 -3.4e+38 -3.4e+38 -3.4e+38 -3.4e+38 -3.4e+38 -3.4e+38 -3.4e+38 -3.4e+38 -3.4e+38 -3.4e+38 -3.4e+38 -3.4e+38 -3.4e+38 -3.4e+38 -3.4e+38 -3.4e+38 -3.4e+38 -3.4e+38 -3.4e+38 -3.4e+38 -3.4e+38 -3.4e+38 -3.4e+38
26.8729839324951 20.5143947601318 13.3148040771484 31.5885334014893 51.7232131958008 39.5998611450195 20.876012802124 35.433666229248 82.9123916625977 31.327205657959 47.2996025085449 17.5881004333496 28.3546257019043 30.6738910675049 23.7853660583496 102.629859924316 143.525161743164 53.2139739990234 114.248748779297 203.42626953125 251.302749633789 -3.4e+38 -3.4e+38 -3.4e+38 -3.4e+38 65.8414764404297 120.014488220215 212.094360351562 232.096908569336 107.932540893555 52.7690658569336 39.6677665710449 51.5829467773438 77.9901962280273 42.0913391113281 65.7501449584961 74.1756973266602 68.4890060424805 46.4810409545898 50.9013557434082 29.6347808837891 26.5778522491455 26.3655261993408 34.3638648986816 36.1024055480957 39.7271347045898 27.3272552490234 32.9708213806152 43.3503952026367 54.1798515319824 42.2947654724121 22.4349803924561 7.54565763473511 -3.4e+38 -3.4e+38 -3.4e+38 -3.4e+38 -3.4e+38 -3.4e+38 -3.4e+38 277.2392578125 318.296844482422 275.469268798828 160.435424804688 50.1651954650879 -3.4e+38 -3.4e+38 140.659713745117 363.420104980469 233.606628417969 212.996032714844 235.266006469727 219.087905883789 287.090454101562 206.767974853516 175.174407958984 169.043045043945 238.204345703125 211.144607543945 96.9584579467773 41.20947265625 126.740135192871 115.853904724121 232.607833862305 298.146331787109 283.846008300781 193.012130737305 331.983215332031 3.4655590057373 2.73375272750854 5.52582693099976 4.15157079696655 6.92612457275391 33.1062202453613 36.5213890075684 33.7392158508301 24.9370765686035 16.8872241973877 21.1855850219727 22.6606540679932 17.0633640289307 35.5869178771973 40.2384605407715 25.1099605560303 46.5866050720215 43.918342590332 40.0768241882324 38.5221405029297 28.0334434509277 9.61380577087402 8.02586650848389 6.73844289779663 3.21746635437012 5.54155302047729 3.68291735649109 3.70202660560608 4.51237201690674 4.30662870407104 3.40163969993591 3.11982107162476 4.18661975860596 3.99868297576904 4.53654527664185 8.75447082519531 37.2450942993164 105.479400634766 373.491821289062 407.234832763672 557.734558105469 576.507080078125 180.48356628418 456.079223632812 771.570068359375 474.0107421875 516.118713378906 475.448547363281 501.4775390625 290.286224365234 54.3797035217285 118.747482299805 76.9899139404297 77.7503051757812 289.966888427734 510.944305419922 464.321990966797 384.801666259766 514.103393554688 570.17236328125 324.345764160156 591.523864746094 620.061706542969 495.839324951172 431.993103027344 434.832366943359 447.989288330078 464.490386962891 406.408569335938 406.782928466797 557.441345214844 462.260833740234 212.769409179688 219.85661315918 203.314407348633 184.318817138672 187.299942016602 94.3389205932617 102.751853942871 126.47061920166 132.203125 170.409332275391 147.091979980469 126.775436401367 99.4095077514648 203.97509765625 177.563171386719 229.170257568359 125.480003356934 76.4737091064453 29.67067527771 120.75218963623 181.874465942383 262.471649169922 71.9446563720703 179.343963623047 175.279815673828 130.776062011719 192.475433349609 201.78337097168 208.153106689453 205.47053527832 244.235748291016 236.797073364258 184.667541503906 -3.4e+38 -3.4e+38 -3.4e+38 -3.4e+38 -3.4e+38 -3.4e+38 -3.4e+38 -3.4e+38 -3.4e+38 -3.4e+38 -3.4e+38 -3.4e+38 -3.4e+38 -3.4e+38 -3.4e+38 -3.4e+38 81.9680786132812 -3.4e+38 -3.4e+38 -3.4e+38 -3.4e+38 -3.4e+38 -3.4e+38 -3.4e+38 -3.4e+38 -3.4e+38 -3.4e+38 -3.4e+38 -3.4e+38 -3.4e+38 -3.4e+38 -3.4e+38 -3.4e+38 -3.4e+38 -3.4e+38 -3.4e+38 -3.4e+38 -3.4e+38 -3.4e+38 -3.4e+38 -3.4e+38 -3.4e+38 -3.4e+38 -3.4e+38 -3.4e+38 -3.4e+38 -3.4e+38 -3.4e+38 -3.4e+38 -3.4e+38 -3.4e+38 -3.4e+38 -3.4e+38 -3.4e+38 -3.4e+38 -3.4e+38 -3.4e+38 -3.4e+38 -3.4e+38 -3.4e+38 -3.4e+38 -3.4e+38 -3.4e+38 -3.4e+38 -3.4e+38 -3.4e+38 -3.4e+38 -3.4e+38 -3.4e+38 -3.4e+38 -3.4e+38 -3.4e+38 -3.4e+38
42.1542778015137 36.8062973022461 33.7745056152344 53.5321388244629 47.3849143981934 37.4131889343262 24.4369144439697 33.2194061279297 66.8585433959961 87.3719253540039 44.6866607666016 46.4249114990234 32.2177352905273 46.6029815673828 24.178279876709 20.1390762329102 101.389602661133 152.62092590332 122.149398803711 138.465026855469 124.794219970703 -3.4e+38 -3.4e+38 -3.4e+38 -3.4e+38 -3.4e+38 95.636589050293 407.903076171875 182.515884399414 166.758224487305 198.754684448242 152.883224487305 136.99153137207 98.3351135253906 35.3292999267578 51.6051254272461 47.1596069335938 56.1008148193359 66.4495162963867 44.9157562255859 19.5775451660156 28.4843578338623 28.5275497436523 38.553466796875 28.5992774963379 33.4992218017578 31.4787750244141 29.8249988555908 35.3009071350098 23.7379722595215 55.3944969177246 34.2732124328613 17.0376873016357 18.6001968383789 -3.4e+38 -3.4e+38 -3.4e+38 -3.4e+38 -3.4e+38 -3.4e+38 -3.4e+38 -3.4e+38 -3.4e+38 -3.4e+38 -3.4e+38 310.807006835938 -3.4e+38 149.35041809082 308.015441894531 248.941497802734 142.534118652344 181.744110107422 234.05241394043 268.977081298828 242.981506347656 229.134307861328 239.163711547852 238.209091186523 277.272674560547 197.156188964844 133.352081298828 148.615753173828 233.179611206055 125.911445617676 159.504837036133 217.304183959961 260.869354248047 210.848159790039 189.077575683594 5.20697212219238 5.25580978393555 11.1853637695312 8.52781581878662 24.4676322937012 34.5213890075684 26.8042850494385 25.2375259399414 43.5986099243164 40.2630310058594 22.094913482666 22.3627681732178 55.7212600708008 47.5570030212402 23.2074508666992 15.4033994674683 27.9072971343994 57.3032760620117 59.4051322937012 65.7441253662109 42.3360786437988 25.1095237731934 9.02817916870117 7.76321649551392 4.86418342590332 4.85003089904785 3.07140254974365 4.35138082504272 3.83517479896545 2.75141978263855 2.92681956291199 3.11446261405945 3.91107439994812 3.10378694534302 3.20263195037842 2.95278286933899 6.49088668823242 7.29165172576904 7.87153244018555 11.4304904937744 11.1042184829712 9.30951881408691 7.54262781143188 7.41865730285645 21.9341049194336 28.5327320098877 4.34420919418335 86.9686889648438 128.284072875977 109.441429138184 253.354339599609 270.420043945312 317.328552246094 447.078247070312 536.819519042969 363.814880371094 223.200973510742 172.254119873047 431.137115478516 273.462341308594 750.067443847656 619.50732421875 490.109771728516 359.791015625 539.770690917969 464.004089355469 479.45361328125 298.431823730469 402.798156738281 670.866271972656 553.631286621094 166.267013549805 144.129867553711 336.92529296875 233.334045410156 112.092079162598 62.5658187866211 123.327896118164 155.77326965332 144.903945922852 276.319732666016 172.263763427734 136.682739257812 170.971527099609 318.319732666016 402.929046630859 228.837432861328 288.606658935547 254.493515014648 169.707931518555 160.786102294922 347.497100830078 386.752166748047 134.89128112793 125.094886779785 113.931999206543 153.338668823242 122.193893432617 156.163421630859 249.478866577148 236.470092773438 278.889770507812 259.811737060547 164.487808227539 -3.4e+38 -3.4e+38 -3.4e+38 -3.4e+38 -3.4e+38 -3.4e+38 -3.4e+38 -3.4e+38 -3.4e+38 -3.4e+38 -3.4e+38 -3.4e+38 -3.4e+38 -3.4e+38 -3.4e+38 28.8094501495361 -3.4e+38 -3.4e+38 -3.4e+38 -3.4e+38 -3.4e+38 -3.4e+38 -3.4e+38 -3.4e+38 -3.4e+38 -3.4e+38 -3.4e+38 -3.4e+38 -3.4e+38 -3.4e+38 -3.4e+38 -3.4e+38 -3.4e+38 -3.4e+38 -3.4e+38 -3.4e+38 -3.4e+38 -3.4e+38 -3.4e+38 -3.4e+38 -3.4e+38 -3.4e+38 -3.4e+38 -3.4e+38 -3.4e+38 -3.4e+38 -3.4e+38 -3.4e+38 -3.4e+38 -3.4e+38 -3.4e+38 -3.4e+38 -3.4e+38 -3.4e+38 -3.4e+38 -3.4e+38 -3.4e+38 -3.4e+38 -3.4e+38 -3.4e+38 -3.4e+38 -3.4e+38 -3.4e+38 -3.4e+38 -3.4e+38 -3.4e+38 -3.4e+38 -3.4e+38 -3.4e+38 -3.4e+38 -3.4e+38 -3.4e+38 -3.4e+38
59.5093841552734 39.106990814209 35.8567161560059 27.6428356170654 21.9476318359375 25.4863948822021 31.1188983917236 34.001781463623 49.4530639648438 43.6941146850586 129.519470214844 130.340377807617 64.7210388183594 122.918365478516 123.527503967285 40.8775405883789 55.2077598571777 126.916915893555 120.680801391602 82.4085388183594 81.8541488647461 215.682235717773 -3.4e+38 -3.4e+38 -3.4e+38 -3.4e+38 23.6177845001221 125.702735900879 212.230682373047 144.834686279297 172.226867675781 73.7814102172852 257.579833984375 164.38916015625 52.558422088623 73.3088226318359 38.8809585571289 31.3047504425049 59.0886726379395 44.6287002563477 34.6781921386719 35.4852638244629 28.6265354156494 54.9797554016113 47.4695854187012 38.2402496337891 37.9552268981934 35.8048782348633 29.2322235107422 31.562349319458 59.4259605407715 42.9021339416504 35.4720840454102 -3.4e+38 -3.4e+38 9.83567810058594 -3.4e+38 -3.4e+38 -3.4e+38 -3.4e+38 -3.4e+38 -3.4e+38 -3.4e+38 -3.4e+38 -3.4e+38 407.414428710938 -3.4e+38 -3.4e+38 98.0576934814453 88.4860534667969 91.0628662109375 81.5399627685547 101.156730651855 132.809265136719 93.1024703979492 72.3134765625 82.7103500366211 135.955032348633 61.5813179016113 160.24723815918 209.844833374023 265.209777832031 127.290512084961 167.267105102539 169.815673828125 180.058975219727 197.356414794922 128.066055297852 121.190444946289 42.4134864807129 2.15041947364807 3.7876033782959 12.0997266769409 24.7859039306641 29.339916229248 42.2550773620605 27.1492462158203 68.8967742919922 24.2747135162354 21.9780368804932 125.34415435791 62.2054710388184 24.4831371307373 19.2240715026855 23.7914638519287 40.7692260742188 62.2356033325195 70.7525405883789 52.1455078125 22.6269664764404 17.3483219146729 15.7499151229858 12.6487588882446 7.41953754425049 5.55646133422852 5.1591739654541 4.57610940933228 3.51336073875427 2.46555590629578 2.85556626319885 3.27685260772705 3.65991163253784 2.59352326393127 2.84544634819031 2.39642858505249 2.7151186466217 3.85018849372864 4.68677520751953 4.00482892990112 5.96027898788452 5.60168790817261 4.25167655944824 9.50318813323975 214.057144165039 202.826232910156 531.239440917969 476.218109130859 220.702529907227 255.180130004883 91.2777481079102 526.3388671875 466.392883300781 448.911163330078 845.106140136719 100.721580505371 304.399261474609 317.612823486328 523.807922363281 346.254516601562 720.617492675781 585.184753417969 397.704803466797 335.193054199219 424.279174804688 353.311950683594 215.116989135742 350.852447509766 302.022979736328 277.965240478516 266.416076660156 102.818458557129 156.068893432617 151.908187866211 241.218841552734 226.075820922852 141.035232543945 153.569732666016 110.270408630371 180.635833740234 195.030090332031 221.497817993164 180.685455322266 273.323150634766 325.461608886719 311.106964111328 269.513061523438 185.500732421875 107.302116394043 228.322540283203 281.988494873047 251.389862060547 248.517105102539 87.4199066162109 170.211517333984 95.4086532592773 157.669067382812 237.960418701172 251.305328369141 187.474700927734 216.589859008789 261.394104003906 202.82421875 -3.4e+38 -3.4e+38 -3.4e+38 -3.4e+38 -3.4e+38 -3.4e+38 -3.4e+38 -3.4e+38 -3.4e+38 -3.4e+38 -3.4e+38 -3.4e+38 -3.4e+38 -3.4e+38 -3.4e+38 -3.4e+38 -3.4e+38 -3.4e+38 -3.4e+38 -3.4e+38 -3.4e+38 -3.4e+38 -3.4e+38 -3.4e+38 -3.4e+38 -3.4e+38 -3.4e+38 -3.4e+38 -3.4e+38 -3.4e+38 -3.4e+38 -3.4e+38 -3.4e+38 -3.4e+38 -3.4e+38 -3.4e+38 -3.4e+38 -3.4e+38 -3.4e+38 -3.4e+38 -3.4e+38 -3.4e+38 -3.4e+38 -3.4e+38 -3.4e+38 -3.4e+38 -3.4e+38 -3.4e+38 -3.4e+38 -3.4e+38 -3.4e+38 -3.4e+38 -3.4e+38 -3.4e+38 -3.4e+38 -3.4e+38 -3.4e+38 -3.4e+38 -3.4e+38 -3.4e+38 -3.4e+38 -3.4e+38 -3.4e+38 -3.4e+38 -3.4e+38 -3.4e+38 -3.4e+38 -3.4e+38 -3.4e+38 -3.4e+38 -3.4e+38 -3.4e+38 -3.4e+38 -3.4e+38
40.8163566589355 23.949390411377 48.4258728027344 52.5334167480469 28.5994243621826 46.0365371704102 42.974308013916 28.5997142791748 29.6427536010742 47.9371185302734 54.2347450256348 71.3547744750977 143.54719543457 90.2096633911133 153.057373046875 22.3403701782227 15.3161201477051 144.308868408203 98.5538787841797 50.6309776306152 76.6493072509766 79.8767166137695 147.057159423828 -3.4e+38 -3.4e+38 -3.4e+38 -3.4e+38 118.608192443848 247.785339355469 158.873306274414 186.410858154297 113.803253173828 143.457504272461 136.339614868164 67.7481460571289 45.9594993591309 41.384822845459 23.3300170898438 53.830005645752 66.159049987793 44.6705055236816 39.0115509033203 24.1379890441895 44.7088241577148 62.1332397460938 86.7691802978516 43.5483589172363 49.5418930053711 26.0596218109131 30.1886768341064 28.8486633300781 42.2124252319336 27.3775615692139 31.0633487701416 17.6909866333008 12.9160757064819 -3.4e+38 -3.4e+38 -3.4e+38 -3.4e+38 -3.4e+38 -3.4e+38 -3.4e+38 -3.4e+38 52.6518974304199 177.773773193359 -3.4e+38 -3.4e+38 -3.4e+38 -3.4e+38 -3.4e+38 -3.4e+38 -3.4e+38 -3.4e+38 -3.4e+38 50.556095123291 15.3206386566162 51.6545104980469 114.571403503418 35.9053649902344 -3.4e+38 -3.4e+38 -3.4e+38 -3.4e+38 -3.4e+38 -3.4e+38 83.0831909179688 100.631141662598 76.8964538574219 25.4787158966064 2.34426140785217 1.88347482681274 18.186450958252 21.7892627716064 24.6069679260254 41.0117607116699 15.8210678100586 52.5373840332031 50.5885314941406 133.738067626953 174.363021850586 37.3043174743652 28.8052864074707 67.7882461547852 74.8535614013672 15.8641958236694 57.688850402832 55.7906684875488 35.3278007507324 40.5053443908691 35.8659782409668 24.3364219665527 31.6481628417969 19.8158054351807 60.829662322998 42.7873001098633 13.7097301483154 20.9652519226074 18.6952781677246 9.73915386199951 8.34230041503906 9.15372276306152 7.71740245819092 12.633716583252 8.46066093444824 68.8800964355469 26.0638027191162 24.9428367614746 52.9362030029297 4.35343933105469 4.513512134552 2.5616557598114 17.4335594177246 228.310470581055 214.076644897461 554.05029296875 680.415771484375 495.430297851562 329.804382324219 357.163665771484 420.475280761719 305.616027832031 565.062561035156 158.141143798828 100.261116027832 182.295776367188 218.106307983398 69.958869934082 725.599304199219 368.760009765625 527.263549804688 368.218963623047 288.876983642578 282.843292236328 255.139709472656 184.180297851562 193.434951782227 212.617797851562 171.935485839844 154.1826171875 135.975357055664 223.78938293457 233.120880126953 123.591186523438 292.544036865234 255.513809204102 147.555358886719 156.317825317383 127.574684143066 170.689605712891 319.014709472656 257.025390625 209.673187255859 89.379150390625 285.361175537109 268.432037353516 326.321044921875 283.631408691406 235.777679443359 275.184631347656 265.943664550781 235.26155090332 99.6792373657227 144.563598632812 184.264389038086 159.853561401367 260.012634277344 266.299865722656 219.670486450195 217.96142578125 175.038970947266 47.2777481079102 -3.4e+38 -3.4e+38 -3.4e+38 -3.4e+38 -3.4e+38 -3.4e+38 -3.4e+38 -3.4e+38 -3.4e+38 -3.4e+38 -3.4e+38 -3.4e+38 -3.4e+38 -3.4e+38 -3.4e+38 -3.4e+38 -3.4e+38 -3.4e+38 -3.4e+38 -3.4e+38 -3.4e+38 -3.4e+38 -3.4e+38 -3.4e+38 -3.4e+38 -3.4e+38 -3.4e+38 -3.4e+38 -3.4e+38 -3.4e+38 -3.4e+38 -3.4e+38 -3.4e+38 -3.4e+38 -3.4e+38 -3.4e+38 -3.4e+38 -3.4e+38 -3.4e+38 -3.4e+38 -3.4e+38 -3.4e+38 -3.4e+38 -3.4e+38 -3.4e+38 -3.4e+38 -3.4e+38 -3.4e+38 -3.4e+38 -3.4e+38 -3.4e+38 -3.4e+38 -3.4e+38 -3.4e+38 -3.4e+38 -3.4e+38 -3.4e+38 -3.4e+38 -3.4e+38 -3.4e+38 -3.4e+38 -3.4e+38 -3.4e+38 -3.4e+38 -3.4e+38 -3.4e+38 -3.4e+38 -3.4e+38 -3.4e+38 -3.4e+38 -3.4e+38 -3.4e+38 -3.4e+38 -3.4e+38
35.8077239990234 30.1924934387207 48.9047050476074 48.3257789611816 41.4931297302246 35.5480613708496 33.75 43.4919548034668 23.7822246551514 29.7963466644287 31.9897155761719 29.4146747589111 25.7159671783447 54.2089691162109 120.075798034668 55.605396270752 18.7456474304199 98.6337814331055 23.6048984527588 39.0161361694336 61.4956970214844 74.848876953125 193.319580078125 -3.4e+38 -3.4e+38 -3.4e+38 -3.4e+38 98.6296539306641 353.228729248047 315.513977050781 292.596038818359 148.057586669922 159.416534423828 55.5769348144531 70.2244873046875 41.2122993469238 48.7922096252441 26.4107990264893 66.666877746582 53.9216461181641 61.8015213012695 48.4918327331543 41.5170974731445 16.8501815795898 30.5909175872803 92.0141220092773 52.7691192626953 52.8725662231445 33.3367958068848 37.325553894043 13.9983777999878 39.9787139892578 17.4555931091309 13.9015588760376 49.8369903564453 16.5038185119629 -3.4e+38 -3.4e+38 -3.4e+38 -3.4e+38 -3.4e+38 -3.4e+38 16.4476089477539 41.0884742736816 98.6310424804688 259.205780029297 -3.4e+38 -3.4e+38 -3.4e+38 -3.4e+38 -3.4e+38 -3.4e+38 -3.4e+38 -3.4e+38 -3.4e+38 -3.4e+38 -3.4e+38 -3.4e+38 -3.4e+38 -3.4e+38 -3.4e+38 -3.4e+38 -3.4e+38 -3.4e+38 -3.4e+38 -3.4e+38 -3.4e+38 34.4266357421875 49.9621047973633 2.20999073982239 1.64519417285919 9.35921096801758 13.0751714706421 18.6457710266113 31.4970149993896 22.1203079223633 28.3044986724854 84.6477279663086 191.623153686523 174.339111328125 114.108993530273 22.6208591461182 41.6641426086426 53.3130531311035 48.9465293884277 33.5367164611816 38.4626731872559 37.6863784790039 20.7842426300049 36.564582824707 22.887113571167 41.4992790222168 66.9199829101562 98.3875274658203 41.9884872436523 60.3955688476562 93.4238433837891 89.1252212524414 51.2655448913574 89.4357376098633 155.992874145508 41.0935211181641 42.3258590698242 51.5860023498535 98.454963684082 91.8889846801758 62.6451530456543 72.9689178466797 57.9558525085449 6.21349096298218 4.35614061355591 2.67457556724548 2.21259713172913 2.90439605712891 1.96846067905426 1.34123122692108 7.37030935287476 14.9831476211548 44.1807556152344 275.385314941406 276.26904296875 285.475616455078 322.253692626953 68.3792266845703 189.852066040039 243.438537597656 195.468978881836 132.433288574219 588.719116210938 361.094085693359 390.226409912109 381.313781738281 317.299468994141 365.553619384766 357.871551513672 340.764556884766 213.804443359375 211.421173095703 151.470474243164 156.647827148438 126.078689575195 341.84716796875 298.760955810547 265.255249023438 228.797409057617 303.753295898438 174.93489074707 202.322784423828 165.383270263672 123.459007263184 155.363098144531 94.3798675537109 131.917953491211 191.341934204102 247.408615112305 310.404296875 269.045440673828 252.708572387695 341.531921386719 296.16259765625 221.268035888672 177.61328125 129.029678344727 138.012283325195 166.361892700195 152.50910949707 203.109664916992 269.413421630859 271.938934326172 208.593048095703 -3.4e+38 -3.4e+38 -3.4e+38 -3.4e+38 -3.4e+38 629.231018066406 390.405822753906 -3.4e+38 -3.4e+38 -3.4e+38 -3.4e+38 -3.4e+38 -3.4e+38 -3.4e+38 -3.4e+38 -3.4e+38 -3.4e+38 -3.4e+38 -3.4e+38 -3.4e+38 -3.4e+38 -3.4e+38 -3.4e+38 -3.4e+38 -3.4e+38 -3.4e+38 -3.4e+38 -3.4e+38 -3.4e+38 -3.4e+38 -3.4e+38 -3.4e+38 -3.4e+38 -3.4e+38 -3.4e+38 -3.4e+38 -3.4e+38 -3.4e+38 -3.4e+38 -3.4e+38 -3.4e+38 -3.4e+38 -3.4e+38 -3.4e+38 -3.4e+38 -3.4e+38 -3.4e+38 -3.4e+38 -3.4e+38 -3.4e+38 -3.4e+38 -3.4e+38 -3.4e+38 -3.4e+38 -3.4e+38 -3.4e+38 -3.4e+38 -3.4e+38 -3.4e+38 -3.4e+38 -3.4e+38 -3.4e+38 -3.4e+38 -3.4e+38 -3.4e+38 -3.4e+38 -3.4e+38 -3.4e+38 -3.4e+38 -3.4e+38 -3.4e+38 -3.4e+38 -3.4e+38 -3.4e+38 -3.4e+38 -3.4e+38
23.0281200408936 38.973518371582 51.0091285705566 71.3842239379883 86.2284317016602 62.8611030578613 35.7414283752441 96.7900390625 25.1023197174072 30.4502048492432 21.1409854888916 22.9131488800049 38.0494346618652 29.3785800933838 84.2783508300781 55.294075012207 16.58740234375 100.473258972168 56.3856010437012 62.1176567077637 50.258487701416 46.2087326049805 194.805374145508 283.760955810547 -3.4e+38 -3.4e+38 -3.4e+38 -3.4e+38 60.8942375183105 198.345733642578 379.549743652344 201.657119750977 132.377990722656 30.3421401977539 29.4620208740234 48.788444519043 35.3500366210938 30.340404510498 32.3339767456055 42.5534858703613 38.7814636230469 53.2313919067383 66.0645599365234 58.6591682434082 17.6522998809814 85.5529861450195 126.734687805176 36.6938591003418 44.0271949768066 39.1513862609863 22.1730499267578 28.0911083221436 14.2053213119507 15.2725458145142 47.3742637634277 24.0789947509766 15.1288824081421 -3.4e+38 -3.4e+38 -3.4e+38 -3.4e+38 13.2963590621948 25.408805847168 28.5381011962891 89.76123046875 263.931915283203 107.224601745605 -3.4e+38 -3.4e+38 -3.4e+38 -3.4e+38 -3.4e+38 -3.4e+38 -3.4e+38 -3.4e+38 -3.4e+38 -3.4e+38 -3.4e+38 -3.4e+38 -3.4e+38 -3.4e+38 -3.4e+38 -3.4e+38 -3.4e+38 -3.4e+38 -3.4e+38 -3.4e+38 -3.4e+38 0 0 -3.4e+38 6.89335966110229 14.1396799087524 13.2813034057617 27.0916576385498 7.25147104263306 26.7137775421143 54.1079444885254 105.336891174316 143.926559448242 144.536407470703 93.4298629760742 57.5760917663574 22.0498828887939 32.143180847168 27.4351749420166 37.5802536010742 44.9139099121094 38.1775550842285 19.8948268890381 45.9459381103516 53.8090476989746 60.455883026123 53.9564628601074 78.3084945678711 48.1916923522949 54.1409912109375 62.6282844543457 57.1905975341797 53.5510063171387 60.5237770080566 49.2461624145508 112.55428314209 108.841674804688 70.0431365966797 39.9975814819336 31.0182476043701 42.3854331970215 35.9915161132812 4.90748357772827 2.20167779922485 1.9979954957962 2.45155024528503 4.63484525680542 2.69171595573425 17.2366313934326 38.2882881164551 78.236457824707 195.891250610352 335.791351318359 211.896072387695 396.470001220703 119.762634277344 81.8984375 252.78889465332 160.158935546875 93.9329223632812 314.567810058594 309.252807617188 297.149932861328 460.191955566406 374.497680664062 457.633697509766 370.835693359375 370.618713378906 525.377868652344 388.960601806641 263.739959716797 173.437347412109 263.569763183594 297.089324951172 181.742721557617 220.893692016602 204.838943481445 191.184188842773 303.400268554688 190.785339355469 164.490310668945 173.169525146484 131.690170288086 108.756843566895 115.88777923584 42.2818183898926 271.315124511719 195.632263183594 146.618499755859 236.851577758789 275.305389404297 178.813552856445 213.021728515625 184.313751220703 202.534652709961 198.701583862305 113.240089416504 91.5642776489258 173.717864990234 176.94189453125 230.008010864258 125.44263458252 -3.4e+38 -3.4e+38 -3.4e+38 -3.4e+38 -3.4e+38 395.337036132812 571.406311035156 -3.4e+38 -3.4e+38 -3.4e+38 -3.4e+38 -3.4e+38 -3.4e+38 -3.4e+38 -3.4e+38 -3.4e+38 -3.4e+38 -3.4e+38 -3.4e+38 -3.4e+38 -3.4e+38 -3.4e+38 -3.4e+38 -3.4e+38 -3.4e+38 -3.4e+38 -3.4e+38 -3.4e+38 -3.4e+38 -3.4e+38 -3.4e+38 -3.4e+38 -3.4e+38 -3.4e+38 -3.4e+38 -3.4e+38 -3.4e+38 -3.4e+38 -3.4e+38 -3.4e+38 -3.4e+38 -3.4e+38 -3.4e+38 -3.4e+38 -3.4e+38 -3.4e+38 -3.4e+38 -3.4e+38 -3.4e+38 -3.4e+38 -3.4e+38 -3.4e+38 -3.4e+38 -3.4e+38 -3.4e+38 -3.4e+38 -3.4e+38 -3.4e+38 -3.4e+38 -3.4e+38 -3.4e+38 -3.4e+38 -3.4e+38 -3.4e+38 -3.4e+38 -3.4e+38 -3.4e+38 -3.4e+38 -3.4e+38 -3.4e+38 -3.4e+38 -3.4e+38 -3.4e+38 -3.4e+38 -3.4e+38 -3.4e+38 -3.4e+38
29.0468254089355 29.2065906524658 38.5148162841797 166.647445678711 83.3091278076172 84.8704833984375 74.0117568969727 58.8341217041016 24.1298885345459 23.1646709442139 23.30224609375 28.3196048736572 18.003812789917 36.6216278076172 48.5568542480469 32.4712257385254 37.9519119262695 95.24365234375 12.1262531280518 51.5956573486328 40.3291816711426 40.9470138549805 43.3235130310059 209.762588500977 -3.4e+38 -3.4e+38 -3.4e+38 -3.4e+38 -3.4e+38 -3.4e+38 152.529251098633 360.365539550781 173.486801147461 150.130950927734 77.5383605957031 32.1653594970703 26.8608512878418 24.7441673278809 26.6925849914551 39.3024711608887 53.837818145752 57.0945739746094 55.4019012451172 56.4686889648438 42.7526397705078 135.301864624023 168.610260009766 38.4904937744141 37.488037109375 35.518856048584 26.4919872283936 20.0131683349609 12.1163730621338 11.9210071563721 23.7881908416748 30.8627452850342 15.6906700134277 16.4672088623047 23.9570751190186 33.6135063171387 37.1433906555176 27.9922027587891 11.3609380722046 17.9381160736084 47.1268310546875 242.997848510742 300.176025390625 211.117523193359 52.3620758056641 -3.4e+38 -3.4e+38 -3.4e+38 -3.4e+38 -3.4e+38 -3.4e+38 -3.4e+38 -3.4e+38 -3.4e+38 -3.4e+38 -3.4e+38 -3.4e+38 -3.4e+38 -3.4e+38 -3.4e+38 -3.4e+38 -3.4e+38 -3.4e+38 -3.4e+38 -3.4e+38 -3.4e+38 35.6599426269531 32.5225028991699 43.2013473510742 21.522891998291 30.952278137207 8.78774261474609 13.535304069519 28.1514129638672 34.1883392333984 82.1939239501953 58.8056106567383 37.1920852661133 100.875144958496 21.0875644683838 21.7702312469482 29.2222175598145 18.0939712524414 26.3866806030273 23.6722297668457 44.6161117553711 38.7448234558105 30.5708808898926 55.261589050293 46.9179992675781 41.8374900817871 41.6259956359863 74.9075469970703 124.186729431152 132.523544311523 88.60986328125 135.537551879883 172.211547851562 114.36937713623 99.5869750976562 99.8490142822266 83.2328109741211 30.2453212738037 26.1526317596436 12.3925676345825 2.79114460945129 2.16015386581421 2.00668120384216 2.83874344825745 2.93355131149292 1.96738290786743 20.3929023742676 47.2995147705078 167.573516845703 279.984375 280.735900878906 361.165557861328 247.187088012695 99.8187942504883 81.123908996582 122.707122802734 82.4342041015625 120.103668212891 441.832275390625 314.081787109375 255.948974609375 306.916900634766 528.797912597656 436.845703125 447.891418457031 275.725921630859 337.226257324219 522.596496582031 378.336578369141 199.722808837891 273.760437011719 228.830413818359 101.685325622559 161.246719360352 234.004531860352 226.639068603516 256.390411376953 229.640594482422 147.137298583984 118.884048461914 157.848999023438 101.115409851074 77.7003936767578 210.915893554688 266.401580810547 105.897361755371 171.646240234375 143.596221923828 120.586296081543 203.076675415039 124.659324645996 194.241119384766 162.429824829102 147.127975463867 154.221984863281 205.171966552734 213.37336730957 230.010955810547 198.604232788086 -3.4e+38 -3.4e+38 -3.4e+38 -3.4e+38 -3.4e+38 12.1564674377441 671.928039550781 854.746215820312 -3.4e+38 -3.4e+38 -3.4e+38 -3.4e+38 -3.4e+38 -3.4e+38 -3.4e+38 -3.4e+38 -3.4e+38 -3.4e+38 -3.4e+38 -3.4e+38 -3.4e+38 -3.4e+38 -3.4e+38 -3.4e+38 -3.4e+38 -3.4e+38 -3.4e+38 -3.4e+38 -3.4e+38 -3.4e+38 -3.4e+38 -3.4e+38 -3.4e+38 -3.4e+38 -3.4e+38 -3.4e+38 -3.4e+38 -3.4e+38 -3.4e+38 -3.4e+38 -3.4e+38 -3.4e+38 -3.4e+38 -3.4e+38 -3.4e+38 -3.4e+38 -3.4e+38 -3.4e+38 -3.4e+38 -3.4e+38 -3.4e+38 -3.4e+38 -3.4e+38 -3.4e+38 -3.4e+38 -3.4e+38 -3.4e+38 -3.4e+38 -3.4e+38 -3.4e+38 -3.4e+38 -3.4e+38 -3.4e+38 -3.4e+38 -3.4e+38 -3.4e+38 -3.4e+38 -3.4e+38 -3.4e+38 -3.4e+38 -3.4e+38 -3.4e+38 -3.4e+38 -3.4e+38 -3.4e+38 -3.4e+38 -3.4e+38 -3.4e+38
23.6078243255615 22.9956951141357 41.9064674377441 34.5595397949219 165.254653930664 124.072692871094 76.2619476318359 90.7896575927734 42.2295875549316 17.8516998291016 12.3866405487061 18.9540462493896 15.7891139984131 18.9423503875732 32.3608856201172 42.0727806091309 61.0014686584473 35.0483283996582 25.3796558380127 71.3266220092773 62.3990211486816 88.8194961547852 102.498497009277 120.514701843262 -3.4e+38 -3.4e+38 -3.4e+38 -3.4e+38 -3.4e+38 -3.4e+38 -3.4e+38 155.455474853516 258.420532226562 141.045135498047 39.2428359985352 78.4340972900391 37.6394729614258 26.8928489685059 22.770092010498 44.3580741882324 49.1775398254395 49.8997917175293 72.3440551757812 48.0531349182129 66.4221496582031 151.432327270508 108.097763061523 31.564432144165 41.2369689941406 25.4404239654541 48.4673233032227 29.8694553375244 17.009801864624 14.6659307479858 16.5652103424072 15.3095302581787 9.51169300079346 14.3867206573486 17.0605640411377 5.33054733276367 8.78086376190186 7.40590143203735 7.19412279129028 14.0221328735352 25.3166675567627 88.8199081420898 253.155654907227 515.992919921875 562.943420410156 280.378662109375 410.91650390625 -3.4e+38 -3.4e+38 -3.4e+38 -3.4e+38 -3.4e+38 -3.4e+38 -3.4e+38 -3.4e+38 -3.4e+38 -3.4e+38 -3.4e+38 -3.4e+38 -3.4e+38 -3.4e+38 -3.4e+38 -3.4e+38 -3.4e+38 -3.4e+38 -3.4e+38 19.0472602844238 44.5935134887695 47.413501739502 24.8399276733398 43.9488258361816 13.8111610412598 9.55436420440674 17.9615287780762 19.7565269470215 25.4298114776611 36.2309379577637 62.2268981933594 54.7859382629395 24.7367610931396 14.4536924362183 28.5111808776855 16.5132789611816 24.1579933166504 34.1156730651855 85.9920272827148 85.50244140625 55.2071189880371 58.9863204956055 82.3922119140625 114.129577636719 160.147674560547 66.921012878418 106.04759979248 73.5828323364258 66.7463760375977 132.459197998047 122.980278015137 65.4657897949219 63.8701972961426 110.850517272949 73.4935150146484 33.4297637939453 20.9142742156982 10.2557945251465 4.41168737411499 1.73238754272461 1.93028151988983 1.91566216945648 0.446982055902481 0.84922331571579 14.9057865142822 38.7182769775391 116.74836730957 216.753936767578 277.763366699219 501.630310058594 133.105026245117 83.4965744018555 49.8234596252441 58.8107986450195 260.466186523438 296.468780517578 375.802612304688 246.311462402344 319.683898925781 349.085906982422 379.7373046875 367.042663574219 287.387542724609 264.771789550781 282.992340087891 283.175140380859 441.907379150391 518.059814453125 481.150726318359 347.429962158203 183.982818603516 285.436614990234 364.989227294922 250.867614746094 83.4890060424805 149.857330322266 107.321578979492 102.09521484375 185.34944152832 162.928451538086 105.867469787598 109.398246765137 75.4228897094727 67.6602935791016 119.971664428711 157.717361450195 138.026275634766 115.564987182617 44.1429557800293 95.3623352050781 149.979537963867 141.073257446289 202.857955932617 184.020263671875 116.724922180176 49.8456077575684 -3.4e+38 -3.4e+38 -3.4e+38 -3.4e+38 -3.4e+38 -3.4e+38 67.0980987548828 836.476501464844 876.638854980469 -3.4e+38 -3.4e+38 -3.4e+38 -3.4e+38 -3.4e+38 -3.4e+38 -3.4e+38 -3.4e+38 -3.4e+38 -3.4e+38 -3.4e+38 -3.4e+38 -3.4e+38 -3.4e+38 -3.4e+38 -3.4e+38 -3.4e+38 -3.4e+38 -3.4e+38 -3.4e+38 -3.4e+38 -3.4e+38 -3.4e+38 -3.4e+38 -3.4e+38 -3.4e+38 -3.4e+38 -3.4e+38 -3.4e+38 -3.4e+38 -3.4e+38 -3.4e+38 -3.4e+38 -3.4e+38 -3.4e+38 -3.4e+38 -3.4e+38 -3.4e+38 -3.4e+38 -3.4e+38 -3.4e+38 -3.4e+38 -3.4e+38 -3.4e+38 -3.4e+38 -3.4e+38 -3.4e+38 -3.4e+38 -3.4e+38 -3.4e+38 -3.4e+38 -3.4e+38 -3.4e+38 -3.4e+38 -3.4e+38 -3.4e+38 -3.4e+38 -3.4e+38 -3.4e+38 -3.4e+38 -3.4e+38 -3.4e+38 -3.4e+38 -3.4e+38 -3.4e+38 -3.4e+38 -3.4e+38 -3.4e+38 -3.4e+38 -3.4e+38
37.0198440551758 40.8993186950684 43.9974594116211 73.5328369140625 102.861755371094 101.140617370605 61.024040222168 24.6919097900391 18.5457744598389 12.5580139160156 6.96079921722412 8.05397415161133 17.0664577484131 21.0779705047607 31.5130805969238 35.3544998168945 38.8826293945312 32.5659141540527 54.872127532959 42.4986572265625 90.2737197875977 66.1118545532227 78.5405883789062 204.866790771484 73.5210571289062 -3.4e+38 -3.4e+38 -3.4e+38 -3.4e+38 -3.4e+38 -3.4e+38 95.0724792480469 331.576446533203 147.481628417969 21.48779296875 71.4088134765625 20.7151279449463 15.3585538864136 23.3288154602051 34.8382453918457 25.7292194366455 50.8508110046387 90.1678161621094 48.1268615722656 27.8699684143066 139.361206054688 71.3718414306641 51.8922691345215 42.9721298217773 16.0723190307617 25.192720413208 18.239860534668 11.5662364959717 11.5498342514038 13.7990474700928 9.61168098449707 8.17906856536865 9.82884693145752 10.3911952972412 6.03176736831665 7.46879816055298 9.68166732788086 9.78464221954346 12.6172246932983 20.4863357543945 50.4720344543457 164.030883789062 137.626037597656 165.119232177734 142.23747253418 245.239410400391 569.253295898438 -3.4e+38 -3.4e+38 -3.4e+38 -3.4e+38 -3.4e+38 -3.4e+38 -3.4e+38 -3.4e+38 -3.4e+38 -3.4e+38 -3.4e+38 -3.4e+38 -3.4e+38 -3.4e+38 -3.4e+38 -3.4e+38 -3.4e+38 -3.4e+38 -3.4e+38 -3.4e+38 -3.4e+38 -3.4e+38 30.1123752593994 28.710765838623 26.4136047363281 7.30552053451538 11.3879976272583 15.5022687911987 46.5718002319336 58.2701072692871 70.4519348144531 29.6851768493652 27.7029075622559 74.3369750976562 98.4350128173828 81.2622146606445 77.9498901367188 101.513481140137 145.7998046875 115.991760253906 66.3006820678711 63.2447700500488 87.1647872924805 82.6214294433594 171.198089599609 105.698959350586 112.447875976562 199.537338256836 126.758926391602 149.831024169922 85.5454864501953 102.051811218262 116.566429138184 69.0455017089844 55.3003959655762 20.3706436157227 8.30729675292969 3.49143958091736 2.87978100776672 1.90233159065247 1.43913686275482 0.288675129413605 -3.4e+38 0.352863103151321 46.416431427002 69.0555191040039 267.607360839844 371.754852294922 484.263427734375 249.518569946289 96.644905090332 44.1722526550293 34.6232376098633 357.221893310547 204.699356079102 326.433990478516 191.718643188477 280.237213134766 307.016448974609 270.818023681641 302.700653076172 309.237579345703 198.054580688477 236.635726928711 251.701858520508 402.858184814453 462.106170654297 541.384460449219 529.489807128906 396.885162353516 478.271697998047 295.029510498047 284.44189453125 203.405242919922 128.160888671875 114.082046508789 113.542976379395 50.0491981506348 38.3460388183594 56.8579483032227 111.644554138184 181.821914672852 159.24430847168 163.798110961914 121.423301696777 132.415237426758 86.3676147460938 -3.4e+38 44.8412475585938 95.6325836181641 138.865386962891 138.143447875977 -3.4e+38 -3.4e+38 -3.4e+38 -3.4e+38 -3.4e+38 -3.4e+38 -3.4e+38 -3.4e+38 -3.4e+38 42.2798690795898 684.050109863281 -3.4e+38 -3.4e+38 -3.4e+38 -3.4e+38 -3.4e+38 -3.4e+38 -3.4e+38 -3.4e+38 -3.4e+38 -3.4e+38 -3.4e+38 -3.4e+38 -3.4e+38 -3.4e+38 -3.4e+38 -3.4e+38 -3.4e+38 -3.4e+38 -3.4e+38 -3.4e+38 -3.4e+38 -3.4e+38 -3.4e+38 -3.4e+38 -3.4e+38 -3.4e+38 -3.4e+38 -3.4e+38 -3.4e+38 -3.4e+38 -3.4e+38 -3.4e+38 -3.4e+38 -3.4e+38 -3.4e+38 -3.4e+38 -3.4e+38 -3.4e+38 -3.4e+38 -3.4e+38 -3.4e+38 -3.4e+38 -3.4e+38 -3.4e+38 -3.4e+38 -3.4e+38 -3.4e+38 -3.4e+38 -3.4e+38 -3.4e+38 -3.4e+38 -3.4e+38 -3.4e+38 -3.4e+38 -3.4e+38 -3.4e+38 -3.4e+38 -3.4e+38 -3.4e+38 -3.4e+38 -3.4e+38 -3.4e+38 -3.4e+38 -3.4e+38 -3.4e+38 -3.4e+38 -3.4e+38 -3.4e+38 -3.4e+38 -3.4e+38 -3.4e+38
24.8450813293457 23.3957405090332 91.5429458618164 64.9069137573242 71.6850662231445 47.8830795288086 61.5220260620117 32.4216117858887 14.4767112731934 11.0408277511597 10.6074342727661 15.7976512908936 18.7470397949219 36.2501411437988 44.5658912658691 32.003719329834 44.876766204834 55.4473991394043 56.8516235351562 54.3230667114258 54.6527328491211 33.3920707702637 88.6216201782227 190.578079223633 212.434814453125 232.316696166992 -3.4e+38 -3.4e+38 -3.4e+38 -3.4e+38 -3.4e+38 62.3492584228516 239.391815185547 139.271408081055 38.0287284851074 25.754280090332 31.0054149627686 18.6806831359863 16.1307411193848 22.127613067627 57.0562210083008 52.4694900512695 65.9908676147461 42.9398231506348 70.054084777832 99.9578323364258 34.1618309020996 29.3027667999268 33.7005615234375 14.8484745025635 17.6630973815918 9.65712261199951 7.60612726211548 15.7075099945068 10.688868522644 8.61982727050781 5.82788801193237 5.28771018981934 3.12163710594177 4.84781074523926 7.07118272781372 11.4561996459961 10.0778751373291 14.2629060745239 16.2921104431152 27.5331134796143 31.0973320007324 72.2898330688477 51.7646217346191 62.4107208251953 43.6364212036133 212.37434387207 -3.4e+38 -3.4e+38 -3.4e+38 -3.4e+38 -3.4e+38 -3.4e+38 -3.4e+38 -3.4e+38 -3.4e+38 -3.4e+38 -3.4e+38 -3.4e+38 -3.4e+38 -3.4e+38 -3.4e+38 -3.4e+38 -3.4e+38 -3.4e+38 -3.4e+38 11.6365928649902 37.0354461669922 47.9571151733398 36.8598518371582 39.1687469482422 36.363826751709 6.17786264419556 10.0468006134033 17.5289287567139 52.8715934753418 79.29833984375 72.4284439086914 129.127700805664 159.733352661133 36.2519569396973 21.103063583374 92.9409637451172 96.1793060302734 176.29948425293 126.156311035156 80.1332015991211 62.4841270446777 88.8295974731445 80.15576171875 195.161804199219 91.3102951049805 73.5771865844727 79.3418121337891 78.6360931396484 90.1961059570312 61.5641708374023 80.5892562866211 122.148788452148 74.4605484008789 106.294494628906 36.0493354797363 19.696870803833 4.15029287338257 1.7394415140152 1.40640127658844 0.997726261615753 1.29217422008514 1.00666201114655 0.320769131183624 -3.4e+38 -3.4e+38 111.579010009766 211.694000244141 376.439208984375 542.71630859375 245.506286621094 126.328300476074 50.7855682373047 20.2222881317139 386.281463623047 212.736297607422 158.461532592773 155.179794311523 182.692245483398 295.580810546875 351.63134765625 185.538833618164 293.682067871094 267.970123291016 178.151275634766 198.307418823242 228.149810791016 331.857421875 408.358154296875 574.484558105469 396.802276611328 218.456069946289 206.680618286133 216.094528198242 121.738121032715 100.71647644043 67.6884994506836 98.1327590942383 86.9055252075195 58.34814453125 72.6748275756836 130.218933105469 81.6996154785156 115.563537597656 263.415832519531 181.838043212891 168.50358581543 112.808547973633 62.2013931274414 -3.4e+38 99.8842391967773 -3.4e+38 -3.4e+38 -3.4e+38 -3.4e+38 -3.4e+38 -3.4e+38 -3.4e+38 -3.4e+38 -3.4e+38 -3.4e+38 -3.4e+38 -3.4e+38 324.792419433594 -3.4e+38 -3.4e+38 -3.4e+38 -3.4e+38 -3.4e+38 -3.4e+38 -3.4e+38 -3.4e+38 -3.4e+38 -3.4e+38 -3.4e+38 -3.4e+38 -3.4e+38 -3.4e+38 -3.4e+38 -3.4e+38 -3.4e+38 -3.4e+38 -3.4e+38 -3.4e+38 -3.4e+38 -3.4e+38 -3.4e+38 -3.4e+38 -3.4e+38 -3.4e+38 -3.4e+38 -3.4e+38 -3.4e+38 -3.4e+38 -3.4e+38 -3.4e+38 -3.4e+38 -3.4e+38 -3.4e+38 -3.4e+38 -3.4e+38 -3.4e+38 -3.4e+38 -3.4e+38 -3.4e+38 -3.4e+38 -3.4e+38 -3.4e+38 -3.4e+38 -3.4e+38 -3.4e+38 -3.4e+38 -3.4e+38 -3.4e+38 -3.4e+38 -3.4e+38 -3.4e+38 -3.4e+38 -3.4e+38 -3.4e+38 -3.4e+38 -3.4e+38 -3.4e+38 -3.4e+38 -3.4e+38 -3.4e+38 -3.4e+38 -3.4e+38 -3.4e+38 -3.4e+38 -3.4e+38 -3.4e+38 -3.4e+38 -3.4e+38 -3.4e+38
16.0050048828125 16.3658885955811 144.331893920898 129.268188476562 25.1661796569824 75.27099609375 52.439151763916 28.4591751098633 13.0209980010986 12.1134004592896 10.7769765853882 21.3330135345459 29.9483108520508 35.2449493408203 57.8203201293945 44.5762596130371 64.9214172363281 66.4787902832031 83.002555847168 37.269603729248 62.1399040222168 55.1413154602051 101.707504272461 172.36637878418 163.641174316406 287.427154541016 284.701934814453 -3.4e+38 -3.4e+38 -3.4e+38 -3.4e+38 68.3652725219727 141.977462768555 251.204376220703 96.3797988891602 101.818298339844 45.5155982971191 66.4332427978516 34.7678527832031 22.5985355377197 79.3465118408203 53.0358848571777 57.3644905090332 39.8667602539062 88.9574508666992 62.1401901245117 42.9347114562988 24.0120697021484 25.337833404541 14.3576526641846 10.3136358261108 10.1075830459595 9.05754470825195 11.225170135498 10.9092884063721 10.8995399475098 6.84722518920898 3.96843242645264 3.46265196800232 3.45013928413391 7.25984907150269 15.2245969772339 13.071307182312 14.4127988815308 4.39377021789551 18.892261505127 30.1110591888428 22.1455116271973 21.6192474365234 29.266622543335 35.270076751709 64.1850509643555 -3.4e+38 -3.4e+38 -3.4e+38 -3.4e+38 -3.4e+38 -3.4e+38 -3.4e+38 -3.4e+38 -3.4e+38 -3.4e+38 -3.4e+38 -3.4e+38 -3.4e+38 -3.4e+38 -3.4e+38 -3.4e+38 -3.4e+38 -3.4e+38 -3.4e+38 -3.4e+38 55.7512245178223 37.7042617797852 49.5946006774902 30.4847450256348 32.0689468383789 42.698429107666 3.86570024490356 60.2656364440918 167.146011352539 230.086807250977 149.499435424805 129.550369262695 139.409896850586 66.618034362793 51.6200103759766 121.17163848877 90.9008255004883 93.7301406860352 116.559783935547 85.224723815918 105.676193237305 129.363143920898 103.356407165527 77.1959457397461 11.2649459838867 17.5462741851807 32.8705978393555 33.8954315185547 61.3543891906738 47.9936599731445 137.639526367188 185.321701049805 88.4303207397461 244.46208190918 125.505424499512 15.1479539871216 0 1.82403385639191 1.12197983264923 0.344350218772888 -3.4e+38 -3.4e+38 -3.4e+38 -3.4e+38 -3.4e+38 125.168731689453 180.257553100586 443.161376953125 556.234924316406 170.734176635742 81.7981109619141 39.6504211425781 59.0164680480957 305.218200683594 230.877563476562 303.24658203125 104.50643157959 150.259918212891 319.485656738281 275.340667724609 221.933166503906 265.693725585938 351.544342041016 223.694961547852 171.218353271484 187.939086914062 214.791259765625 280.826507568359 352.387268066406 538.257385253906 278.773651123047 119.395385742188 179.338150024414 153.400283813477 131.894866943359 147.269027709961 248.25439453125 171.293167114258 17.1623477935791 16.2009220123291 57.0455207824707 27.3741493225098 22.886869430542 200.105758666992 84.9368057250977 75.7260589599609 91.5092010498047 -3.4e+38 -3.4e+38 -3.4e+38 -3.4e+38 -3.4e+38 -3.4e+38 -3.4e+38 -3.4e+38 -3.4e+38 -3.4e+38 -3.4e+38 -3.4e+38 -3.4e+38 -3.4e+38 -3.4e+38 -3.4e+38 -3.4e+38 -3.4e+38 -3.4e+38 -3.4e+38 -3.4e+38 -3.4e+38 -3.4e+38 -3.4e+38 -3.4e+38 -3.4e+38 -3.4e+38 -3.4e+38 -3.4e+38 -3.4e+38 -3.4e+38 -3.4e+38 -3.4e+38 -3.4e+38 -3.4e+38 -3.4e+38 -3.4e+38 -3.4e+38 -3.4e+38 -3.4e+38 -3.4e+38 -3.4e+38 -3.4e+38 -3.4e+38 -3.4e+38 -3.4e+38 -3.4e+38 -3.4e+38 -3.4e+38 -3.4e+38 -3.4e+38 -3.4e+38 -3.4e+38 -3.4e+38 -3.4e+38 -3.4e+38 -3.4e+38 -3.4e+38 -3.4e+38 -3.4e+38 -3.4e+38 -3.4e+38 -3.4e+38 -3.4e+38 -3.4e+38 -3.4e+38 -3.4e+38 -3.4e+38 -3.4e+38 -3.4e+38 -3.4e+38 -3.4e+38 -3.4e+38 -3.4e+38 -3.4e+38 -3.4e+38 -3.4e+38 -3.4e+38 -3.4e+38 -3.4e+38 -3.4e+38 -3.4e+38 -3.4e+38 -3.4e+38 -3.4e+38 -3.4e+38 -3.4e+38
35.5552101135254 46.8729095458984 27.3528270721436 36.6706352233887 28.4408512115479 49.0860176086426 54.9772071838379 20.6184883117676 13.0944337844849 19.5100288391113 15.7432794570923 25.7448787689209 36.955738067627 34.0800437927246 45.5984001159668 46.5585136413574 58.5585174560547 78.0694122314453 79.9823837280273 38.5888481140137 73.821891784668 59.2642593383789 85.4266662597656 110.799606323242 79.9180145263672 126.002410888672 264.818359375 -3.4e+38 -3.4e+38 -3.4e+38 -3.4e+38 50.67138671875 102.944839477539 571.07080078125 157.929656982422 88.8729629516602 62.1459846496582 127.288032531738 68.153076171875 27.725061416626 76.0356903076172 62.9121475219727 52.1454010009766 39.1027069091797 74.2330932617188 30.9018821716309 32.8661155700684 30.8024845123291 19.2995700836182 12.6826648712158 11.74573802948 11.5672569274902 9.76290988922119 10.0662431716919 10.1333227157593 9.27674865722656 7.13545370101929 4.53405666351318 6.09357690811157 4.98212385177612 8.12029075622559 11.1266841888428 4.36258840560913 9.17202472686768 17.3920593261719 20.162088394165 13.9633464813232 23.396764755249 28.1224842071533 21.6931667327881 37.5136642456055 -3.4e+38 -3.4e+38 -3.4e+38 -3.4e+38 -3.4e+38 -3.4e+38 -3.4e+38 -3.4e+38 -3.4e+38 -3.4e+38 -3.4e+38 -3.4e+38 -3.4e+38 -3.4e+38 -3.4e+38 -3.4e+38 -3.4e+38 -3.4e+38 -3.4e+38 -3.4e+38 -3.4e+38 -3.4e+38 39.4607925415039 78.3675994873047 72.4348220825195 50.7683029174805 -3.4e+38 4.84802484512329 44.9007415771484 105.737724304199 164.828491210938 56.8376960754395 100.682960510254 207.340362548828 108.193603515625 129.346008300781 206.352920532227 134.084671020508 58.8694114685059 59.7836761474609 31.2522163391113 28.5416011810303 33.7033157348633 88.9875640869141 12.117883682251 12.5823469161987 34.1294136047363 40.7588157653809 62.4755783081055 29.3102416992188 104.396308898926 94.0953216552734 101.225212097168 176.63737487793 94.4891128540039 88.2392578125 -3.4e+38 -3.4e+38 -3.4e+38 -3.4e+38 -3.4e+38 -3.4e+38 -3.4e+38 -3.4e+38 -3.4e+38 -3.4e+38 96.505241394043 144.421005249023 324.524536132812 482.675720214844 290.768737792969 78.306510925293 103.071144104004 50.3842353820801 393.279846191406 278.623352050781 279.753021240234 163.607498168945 196.249633789062 283.473846435547 302.943054199219 317.508178710938 309.699554443359 254.281860351562 230.751983642578 146.484298706055 224.667251586914 189.335021972656 234.423034667969 260.085906982422 468.978210449219 367.411193847656 115.685546875 107.009414672852 47.2641639709473 118.774116516113 129.128967285156 165.780548095703 -3.4e+38 -3.4e+38 -3.4e+38 5.73284387588501 17.6339454650879 -3.4e+38 -3.4e+38 -3.4e+38 -3.4e+38 -3.4e+38 -3.4e+38 -3.4e+38 -3.4e+38 -3.4e+38 -3.4e+38 -3.4e+38 -3.4e+38 -3.4e+38 -3.4e+38 -3.4e+38 -3.4e+38 -3.4e+38 -3.4e+38 -3.4e+38 -3.4e+38 -3.4e+38 -3.4e+38 -3.4e+38 -3.4e+38 -3.4e+38 -3.4e+38 -3.4e+38 -3.4e+38 -3.4e+38 -3.4e+38 -3.4e+38 -3.4e+38 -3.4e+38 -3.4e+38 -3.4e+38 -3.4e+38 -3.4e+38 -3.4e+38 -3.4e+38 -3.4e+38 -3.4e+38 -3.4e+38 -3.4e+38 -3.4e+38 -3.4e+38 -3.4e+38 -3.4e+38 -3.4e+38 -3.4e+38 -3.4e+38 -3.4e+38 -3.4e+38 -3.4e+38 -3.4e+38 -3.4e+38 -3.4e+38 -3.4e+38 -3.4e+38 -3.4e+38 -3.4e+38 -3.4e+38 -3.4e+38 -3.4e+38 -3.4e+38 -3.4e+38 -3.4e+38 -3.4e+38 -3.4e+38 -3.4e+38 -3.4e+38 -3.4e+38 -3.4e+38 -3.4e+38 -3.4e+38 -3.4e+38 -3.4e+38 -3.4e+38 -3.4e+38 -3.4e+38 -3.4e+38 -3.4e+38 -3.4e+38 -3.4e+38 -3.4e+38 -3.4e+38 -3.4e+38 -3.4e+38 -3.4e+38 -3.4e+38 -3.4e+38 -3.4e+38 -3.4e+38
39.9397468566895 32.6480751037598 51.9213218688965 45.4992523193359 48.9315528869629 26.4813213348389 36.1464538574219 37.2941932678223 25.654878616333 27.2156829833984 25.4235668182373 28.8601741790771 35.660472869873 29.6866130828857 44.5861511230469 49.6516494750977 50.9690818786621 52.0105972290039 51.4034271240234 40.4080200195312 24.1370334625244 56.7691917419434 66.5851745605469 72.2365646362305 55.5588035583496 95.4129333496094 222.332138061523 -3.4e+38 -3.4e+38 -3.4e+38 -3.4e+38 -3.4e+38 87.873649597168 303.464691162109 548.582275390625 195.467590332031 70.7275085449219 104.237770080566 45.7601585388184 36.3565711975098 32.6860122680664 50.7241363525391 45.3628807067871 72.7478637695312 59.3546867370605 45.4071884155273 28.8823490142822 21.7307968139648 13.6761541366577 12.4825859069824 11.2819519042969 12.3807802200317 11.2172298431396 8.99891090393066 10.9586668014526 9.30124855041504 8.43848133087158 6.83335733413696 8.4263973236084 6.47971057891846 10.7941980361938 6.28717470169067 6.53907918930054 9.08681392669678 13.3880910873413 15.8980178833008 15.7148857116699 21.4581546783447 17.3867321014404 14.3483114242554 -3.4e+38 -3.4e+38 -3.4e+38 -3.4e+38 -3.4e+38 -3.4e+38 -3.4e+38 -3.4e+38 -3.4e+38 -3.4e+38 -3.4e+38 -3.4e+38 -3.4e+38 -3.4e+38 -3.4e+38 -3.4e+38 -3.4e+38 -3.4e+38 -3.4e+38 -3.4e+38 -3.4e+38 -3.4e+38 -3.4e+38 -3.4e+38 37.3874244689941 -3.4e+38 -3.4e+38 -3.4e+38 -3.4e+38 95.2485809326172 212.480422973633 115.71720123291 69.742561340332 39.2655944824219 104.682632446289 106.257278442383 39.2016410827637 31.4718132019043 34.3482055664062 31.5000782012939 46.2192268371582 24.8284950256348 20.8702754974365 63.4145660400391 34.3612632751465 38.5348892211914 44.6995697021484 93.0073013305664 84.4450531005859 43.7044677734375 78.8893203735352 162.73258972168 117.045425415039 99.0735549926758 45.1520385742188 15.3775205612183 0.668557941913605 -3.4e+38 -3.4e+38 -3.4e+38 -3.4e+38 -3.4e+38 -3.4e+38 -3.4e+38 -3.4e+38 -3.4e+38 -3.4e+38 -3.4e+38 99.2881698608398 200.951431274414 297.468017578125 244.546340942383 85.1054992675781 104.92000579834 64.2287063598633 264.234710693359 205.085571289062 235.807891845703 182.128784179688 194.966384887695 238.440002441406 251.933746337891 351.5263671875 247.039443969727 221.450790405273 235.500152587891 133.881469726562 225.121612548828 199.108139038086 229.326370239258 265.043304443359 282.831085205078 281.078155517578 239.27555847168 95.3969345092773 71.5247421264648 36.4488143920898 -3.4e+38 -3.4e+38 -3.4e+38 -3.4e+38 -3.4e+38 19.4988594055176 48.8806114196777 -3.4e+38 -3.4e+38 -3.4e+38 -3.4e+38 -3.4e+38 -3.4e+38 -3.4e+38 -3.4e+38 -3.4e+38 -3.4e+38 -3.4e+38 -3.4e+38 -3.4e+38 -3.4e+38 -3.4e+38 -3.4e+38 -3.4e+38 -3.4e+38 -3.4e+38 -3.4e+38 -3.4e+38 -3.4e+38 -3.4e+38 -3.4e+38 -3.4e+38 -3.4e+38 -3.4e+38 -3.4e+38 -3.4e+38 -3.4e+38 -3.4e+38 -3.4e+38 -3.4e+38 -3.4e+38 -3.4e+38 -3.4e+38 -3.4e+38 -3.4e+38 -3.4e+38 -3.4e+38 -3.4e+38 -3.4e+38 -3.4e+38 -3.4e+38 -3.4e+38 -3.4e+38 -3.4e+38 -3.4e+38 -3.4e+38 -3.4e+38 -3.4e+38 -3.4e+38 -3.4e+38 -3.4e+38 -3.4e+38 -3.4e+38 -3.4e+38 -3.4e+38 -3.4e+38 -3.4e+38 -3.4e+38 -3.4e+38 -3.4e+38 -3.4e+38 -3.4e+38 -3.4e+38 -3.4e+38 -3.4e+38 -3.4e+38 -3.4e+38 -3.4e+38 -3.4e+38 -3.4e+38 -3.4e+38 -3.4e+38 -3.4e+38 -3.4e+38 -3.4e+38 -3.4e+38 -3.4e+38 -3.4e+38 -3.4e+38 -3.4e+38 -3.4e+38 -3.4e+38 -3.4e+38 -3.4e+38 -3.4e+38 -3.4e+38 -3.4e+38 -3.4e+38 -3.4e+38
30.5164966583252 33.4914321899414 37.5650749206543 53.979248046875 48.8937835693359 11.7672662734985 14.7060804367065 25.9778099060059 53.4255905151367 34.6391220092773 42.2778472900391 28.7829322814941 26.0943355560303 23.5485038757324 23.3953990936279 21.4322261810303 23.8666000366211 17.0900650024414 33.3897171020508 23.0284023284912 16.8095798492432 45.3914985656738 48.4177627563477 35.6406707763672 54.0405921936035 66.7880859375 286.715087890625 -3.4e+38 -3.4e+38 -3.4e+38 -3.4e+38 -3.4e+38 -3.4e+38 88.9776611328125 229.236145019531 667.295776367188 166.340728759766 99.0229263305664 49.0591583251953 68.7067031860352 39.5536727905273 69.1255111694336 44.6515998840332 74.3871917724609 30.6845703125 36.1440925598145 27.4566822052002 23.1574764251709 24.4488182067871 17.3354721069336 9.93843746185303 11.105507850647 11.2266063690186 10.3889436721802 9.79740142822266 9.58701133728027 9.54295921325684 9.80647945404053 8.21111488342285 7.34041261672974 10.2116165161133 7.26326894760132 6.78916501998901 5.957275390625 10.5046653747559 5.26098251342773 9.21373653411865 35.1870574951172 40.3384284973145 -3.4e+38 -3.4e+38 -3.4e+38 -3.4e+38 -3.4e+38 -3.4e+38 -3.4e+38 -3.4e+38 -3.4e+38 -3.4e+38 -3.4e+38 -3.4e+38 -3.4e+38 -3.4e+38 -3.4e+38 -3.4e+38 -3.4e+38 -3.4e+38 -3.4e+38 -3.4e+38 -3.4e+38 -3.4e+38 -3.4e+38 -3.4e+38 -3.4e+38 -3.4e+38 -3.4e+38 -3.4e+38 -3.4e+38 41.521671295166 145.26806640625 97.6969909667969 84.9063873291016 91.1325454711914 125.082160949707 41.1209869384766 42.027889251709 67.6192245483398 57.1961898803711 44.118034362793 48.0197715759277 44.1862144470215 25.2911548614502 27.1262035369873 47.5131683349609 41.3806495666504 119.541465759277 103.437065124512 125.623756408691 79.8012847900391 40.3749084472656 179.906036376953 147.684066772461 125.542442321777 65.351203918457 27.567024230957 2.79049468040466 -3.4e+38 -3.4e+38 -3.4e+38 -3.4e+38 -3.4e+38 -3.4e+38 -3.4e+38 -3.4e+38 -3.4e+38 -3.4e+38 -3.4e+38 -3.4e+38 -3.4e+38 80.912956237793 214.99104309082 346.370452880859 43.901912689209 60.2525978088379 71.4976043701172 317.351928710938 301.799652099609 222.731781005859 329.581756591797 259.543853759766 270.590057373047 310.447204589844 250.770858764648 158.464248657227 186.575485229492 212.129806518555 222.011215209961 225.773864746094 189.291015625 267.717315673828 245.149887084961 226.536437988281 269.595672607422 226.021499633789 85.3538208007812 10.425929069519 -3.4e+38 -3.4e+38 -3.4e+38 -3.4e+38 -3.4e+38 -3.4e+38 -3.4e+38 -3.4e+38 -3.4e+38 -3.4e+38 -3.4e+38 -3.4e+38 -3.4e+38 -3.4e+38 -3.4e+38 -3.4e+38 -3.4e+38 -3.4e+38 -3.4e+38 -3.4e+38 -3.4e+38 -3.4e+38 -3.4e+38 -3.4e+38 -3.4e+38 -3.4e+38 -3.4e+38 -3.4e+38 -3.4e+38 -3.4e+38 -3.4e+38 -3.4e+38 -3.4e+38 -3.4e+38 -3.4e+38 -3.4e+38 -3.4e+38 -3.4e+38 -3.4e+38 -3.4e+38 -3.4e+38 -3.4e+38 -3.4e+38 -3.4e+38 -3.4e+38 -3.4e+38 -3.4e+38 -3.4e+38 -3.4e+38 -3.4e+38 -3.4e+38 -3.4e+38 -3.4e+38 -3.4e+38 -3.4e+38 -3.4e+38 -3.4e+38 -3.4e+38 -3.4e+38 -3.4e+38 -3.4e+38 -3.4e+38 -3.4e+38 -3.4e+38 -3.4e+38 -3.4e+38 -3.4e+38 -3.4e+38 -3.4e+38 -3.4e+38 -3.4e+38 -3.4e+38 -3.4e+38 -3.4e+38 -3.4e+38 -3.4e+38 -3.4e+38 -3.4e+38 -3.4e+38 -3.4e+38 -3.4e+38 -3.4e+38 -3.4e+38 -3.4e+38 -3.4e+38 -3.4e+38 -3.4e+38 -3.4e+38 -3.4e+38 -3.4e+38 -3.4e+38 -3.4e+38 -3.4e+38 -3.4e+38 -3.4e+38 -3.4e+38 -3.4e+38 -3.4e+38 -3.4e+38 -3.4e+38
36.025634765625 22.3279628753662 35.8669128417969 28.9186534881592 16.5038089752197 4.92835521697998 30.2930488586426 50.7959671020508 35.2204551696777 25.8140239715576 17.478889465332 14.0941038131714 23.7624912261963 17.741039276123 25.0636749267578 27.7735748291016 21.6643619537354 17.8842601776123 13.8932094573975 18.0303211212158 12.0439214706421 20.3084201812744 27.1411876678467 51.2986526489258 102.096321105957 78.2260894775391 230.876998901367 -3.4e+38 -3.4e+38 -3.4e+38 -3.4e+38 -3.4e+38 -3.4e+38 -3.4e+38 105.659072875977 358.093963623047 558.905212402344 206.923736572266 91.1069641113281 98.9742736816406 76.3840484619141 84.8791046142578 52.1246490478516 55.0536117553711 23.8703632354736 27.9836730957031 28.3639602661133 24.9021167755127 22.6473255157471 13.3248949050903 14.6697587966919 12.3100576400757 10.8023376464844 8.86515331268311 9.65287208557129 11.1990909576416 11.5853090286255 11.3066272735596 10.2621822357178 11.6619625091553 11.5449504852295 9.11867237091064 8.46342277526855 14.9950895309448 16.8027095794678 7.57146167755127 3.32345056533813 27.3875293731689 -3.4e+38 -3.4e+38 -3.4e+38 -3.4e+38 -3.4e+38 -3.4e+38 -3.4e+38 -3.4e+38 -3.4e+38 -3.4e+38 -3.4e+38 -3.4e+38 -3.4e+38 -3.4e+38 -3.4e+38 -3.4e+38 -3.4e+38 -3.4e+38 -3.4e+38 -3.4e+38 -3.4e+38 -3.4e+38 -3.4e+38 -3.4e+38 -3.4e+38 -3.4e+38 -3.4e+38 -3.4e+38 -3.4e+38 -3.4e+38 49.1417045593262 166.683715820312 164.131973266602 63.8443641662598 21.5328979492188 76.7256240844727 47.3329963684082 44.7004013061523 45.9789772033691 31.781982421875 59.7252655029297 74.8201293945312 97.5232772827148 92.2720642089844 19.8949031829834 44.8090057373047 144.061248779297 95.71630859375 27.8799953460693 112.90885925293 159.201217651367 212.694076538086 202.802352905273 267.055572509766 73.6244506835938 100.400856018066 -3.4e+38 -3.4e+38 -3.4e+38 -3.4e+38 -3.4e+38 -3.4e+38 -3.4e+38 -3.4e+38 -3.4e+38 -3.4e+38 -3.4e+38 -3.4e+38 -3.4e+38 -3.4e+38 -3.4e+38 -3.4e+38 77.9713439941406 332.808044433594 116.851554870605 54.2732467651367 63.7054634094238 236.160980224609 337.886138916016 213.396759033203 306.9296875 253.583343505859 256.167419433594 265.267303466797 217.474609375 214.496841430664 183.558227539062 230.964706420898 221.508392333984 278.828186035156 235.520141601562 245.459045410156 286.500091552734 318.733306884766 345.842254638672 215.24528503418 41.5246543884277 -3.4e+38 -3.4e+38 -3.4e+38 -3.4e+38 -3.4e+38 -3.4e+38 34.5368499755859 38.4333610534668 27.1732635498047 27.6788311004639 -3.4e+38 -3.4e+38 -3.4e+38 -3.4e+38 -3.4e+38 -3.4e+38 -3.4e+38 -3.4e+38 -3.4e+38 -3.4e+38 -3.4e+38 -3.4e+38 -3.4e+38 -3.4e+38 -3.4e+38 -3.4e+38 -3.4e+38 -3.4e+38 -3.4e+38 -3.4e+38 -3.4e+38 -3.4e+38 -3.4e+38 -3.4e+38 -3.4e+38 -3.4e+38 -3.4e+38 -3.4e+38 -3.4e+38 -3.4e+38 -3.4e+38 -3.4e+38 -3.4e+38 -3.4e+38 -3.4e+38 -3.4e+38 -3.4e+38 -3.4e+38 -3.4e+38 -3.4e+38 -3.4e+38 -3.4e+38 -3.4e+38 -3.4e+38 -3.4e+38 -3.4e+38 -3.4e+38 -3.4e+38 -3.4e+38 -3.4e+38 -3.4e+38 -3.4e+38 -3.4e+38 -3.4e+38 -3.4e+38 -3.4e+38 -3.4e+38 -3.4e+38 -3.4e+38 -3.4e+38 -3.4e+38 -3.4e+38 -3.4e+38 -3.4e+38 -3.4e+38 -3.4e+38 -3.4e+38 -3.4e+38 -3.4e+38 -3.4e+38 -3.4e+38 -3.4e+38 -3.4e+38 -3.4e+38 -3.4e+38 -3.4e+38 -3.4e+38 -3.4e+38 -3.4e+38 -3.4e+38 -3.4e+38 -3.4e+38 -3.4e+38 -3.4e+38 -3.4e+38 -3.4e+38 -3.4e+38 -3.4e+38 -3.4e+38 -3.4e+38 -3.4e+38
31.7901935577393 34.1648445129395 25.0961017608643 16.1695156097412 9.97674083709717 18.0608425140381 51.9754524230957 54.4826927185059 37.1414680480957 12.3701019287109 32.3051795959473 14.1115942001343 17.1201019287109 13.0377559661865 12.6049308776855 34.4059829711914 23.5430393218994 20.0931663513184 23.6669826507568 31.3838520050049 11.2087774276733 12.8321151733398 24.3810291290283 45.3577651977539 63.4042282104492 112.534225463867 176.321151733398 129.240112304688 -3.4e+38 -3.4e+38 -3.4e+38 -3.4e+38 -3.4e+38 -3.4e+38 -3.4e+38 78.7478713989258 344.456085205078 344.541137695312 84.9540557861328 110.738861083984 129.753707885742 114.708160400391 89.4425582885742 56.6744499206543 25.9239158630371 28.3713531494141 27.3326435089111 26.3708515167236 20.5289764404297 15.229266166687 15.4285593032837 13.3189716339111 10.3308362960815 7.08384561538696 10.5924949645996 13.6719999313354 11.7065696716309 17.2651462554932 20.8153629302979 18.7954654693604 16.7054767608643 9.48187828063965 23.2758274078369 24.7329521179199 13.6815404891968 13.8505754470825 11.7001628875732 34.8847389221191 29.7017097473145 -3.4e+38 -3.4e+38 -3.4e+38 -3.4e+38 -3.4e+38 -3.4e+38 -3.4e+38 -3.4e+38 -3.4e+38 -3.4e+38 -3.4e+38 -3.4e+38 -3.4e+38 -3.4e+38 -3.4e+38 -3.4e+38 -3.4e+38 -3.4e+38 -3.4e+38 -3.4e+38 -3.4e+38 -3.4e+38 -3.4e+38 -3.4e+38 -3.4e+38 -3.4e+38 -3.4e+38 -3.4e+38 -3.4e+38 -3.4e+38 64.4614639282227 297.237976074219 88.614990234375 98.6014633178711 84.0221786499023 34.4629974365234 21.9922180175781 17.6331634521484 34.7287292480469 39.0405235290527 61.9227867126465 103.440658569336 108.742164611816 30.2122592926025 64.6434631347656 145.622177124023 147.271179199219 55.2502708435059 20.8497295379639 153.660263061523 248.795471191406 176.400894165039 239.69157409668 82.8244018554688 -3.4e+38 -3.4e+38 -3.4e+38 -3.4e+38 -3.4e+38 -3.4e+38 -3.4e+38 -3.4e+38 -3.4e+38 -3.4e+38 -3.4e+38 -3.4e+38 -3.4e+38 -3.4e+38 -3.4e+38 -3.4e+38 -3.4e+38 24.1921424865723 251.342498779297 247.244171142578 41.8756103515625 101.636421203613 146.32487487793 311.544769287109 350.396423339844 182.681228637695 251.186508178711 320.455413818359 263.001922607422 191.881942749023 171.02912902832 270.363861083984 286.338806152344 266.932525634766 333.665618896484 272.649200439453 315.530120849609 383.631713867188 503.921600341797 235.440841674805 147.221664428711 58.9515075683594 -3.4e+38 -3.4e+38 -3.4e+38 -3.4e+38 -3.4e+38 58.3240013122559 243.539047241211 194.718200683594 102.652221679688 -3.4e+38 -3.4e+38 -3.4e+38 -3.4e+38 -3.4e+38 -3.4e+38 -3.4e+38 -3.4e+38 -3.4e+38 -3.4e+38 -3.4e+38 -3.4e+38 -3.4e+38 -3.4e+38 -3.4e+38 -3.4e+38 -3.4e+38 -3.4e+38 -3.4e+38 -3.4e+38 -3.4e+38 -3.4e+38 -3.4e+38 -3.4e+38 -3.4e+38 -3.4e+38 -3.4e+38 -3.4e+38 -3.4e+38 -3.4e+38 -3.4e+38 -3.4e+38 -3.4e+38 -3.4e+38 -3.4e+38 -3.4e+38 -3.4e+38 -3.4e+38 -3.4e+38 -3.4e+38 -3.4e+38 -3.4e+38 -3.4e+38 -3.4e+38 -3.4e+38 -3.4e+38 -3.4e+38 -3.4e+38 -3.4e+38 -3.4e+38 -3.4e+38 -3.4e+38 -3.4e+38 -3.4e+38 -3.4e+38 -3.4e+38 -3.4e+38 -3.4e+38 -3.4e+38 -3.4e+38 -3.4e+38 -3.4e+38 -3.4e+38 -3.4e+38 -3.4e+38 -3.4e+38 -3.4e+38 -3.4e+38 -3.4e+38 -3.4e+38 -3.4e+38 -3.4e+38 -3.4e+38 -3.4e+38 -3.4e+38 -3.4e+38 -3.4e+38 -3.4e+38 -3.4e+38 -3.4e+38 -3.4e+38 -3.4e+38 -3.4e+38 -3.4e+38 -3.4e+38 -3.4e+38 -3.4e+38 -3.4e+38 -3.4e+38 -3.4e+38 -3.4e+38 -3.4e+38
78.0265274047852 46.9232063293457 26.3114147186279 11.2987365722656 8.86683940887451 13.2820148468018 33.3682441711426 38.9148788452148 29.7443866729736 23.1373176574707 19.7347106933594 32.3668785095215 17.3633995056152 13.3274126052856 26.7778606414795 18.4272232055664 22.4574642181396 34.935245513916 31.823673248291 60.9272842407227 13.0033588409424 9.40382099151611 14.9890298843384 48.0800361633301 94.5675582885742 109.032012939453 83.8466033935547 383.639343261719 -3.4e+38 -3.4e+38 -3.4e+38 -3.4e+38 -3.4e+38 -3.4e+38 -3.4e+38 32.0136108398438 138.992065429688 698.456787109375 91.324592590332 136.62077331543 117.032272338867 131.205123901367 73.0681838989258 43.7594528198242 24.3040523529053 21.2155170440674 32.9146728515625 28.2154502868652 19.9726219177246 19.161506652832 18.9617385864258 18.7201519012451 16.1950626373291 17.0768852233887 25.281005859375 24.170389175415 21.9108448028564 23.2591190338135 24.6078243255615 18.4962425231934 18.5564002990723 22.8498153686523 18.9480152130127 10.2585954666138 8.25122356414795 27.2495422363281 43.4652671813965 -3.4e+38 -3.4e+38 -3.4e+38 -3.4e+38 -3.4e+38 -3.4e+38 -3.4e+38 -3.4e+38 -3.4e+38 -3.4e+38 -3.4e+38 -3.4e+38 -3.4e+38 -3.4e+38 -3.4e+38 -3.4e+38 -3.4e+38 -3.4e+38 -3.4e+38 -3.4e+38 -3.4e+38 -3.4e+38 -3.4e+38 -3.4e+38 -3.4e+38 -3.4e+38 -3.4e+38 -3.4e+38 -3.4e+38 -3.4e+38 -3.4e+38 -3.4e+38 256.223449707031 84.7788009643555 59.0234603881836 58.3555450439453 78.4125061035156 61.8451042175293 83.6957778930664 82.3156967163086 50.0887413024902 18.2542762756348 49.066650390625 80.0578384399414 52.4813766479492 33.1421852111816 76.4457397460938 82.6231536865234 135.169403076172 176.128707885742 162.344512939453 126.571044921875 333.963470458984 164.90673828125 222.412979125977 -3.4e+38 -3.4e+38 -3.4e+38 -3.4e+38 -3.4e+38 -3.4e+38 -3.4e+38 -3.4e+38 -3.4e+38 -3.4e+38 -3.4e+38 -3.4e+38 -3.4e+38 -3.4e+38 -3.4e+38 -3.4e+38 -3.4e+38 -3.4e+38 30.6817893981934 161.108932495117 266.636383056641 25.9036083221436 133.509353637695 104.875701904297 439.018524169922 458.173583984375 145.108627319336 268.330993652344 339.075500488281 291.249694824219 187.111953735352 169.595031738281 159.539047241211 260.308746337891 163.041137695312 170.607330322266 337.356811523438 403.859466552734 273.914703369141 259.555389404297 312.562835693359 290.196441650391 78.1846923828125 -3.4e+38 -3.4e+38 -3.4e+38 -3.4e+38 -3.4e+38 261.878845214844 260.003631591797 275.685363769531 157.524200439453 -3.4e+38 -3.4e+38 -3.4e+38 -3.4e+38 -3.4e+38 -3.4e+38 -3.4e+38 -3.4e+38 -3.4e+38 -3.4e+38 -3.4e+38 -3.4e+38 -3.4e+38 -3.4e+38 -3.4e+38 -3.4e+38 -3.4e+38 -3.4e+38 -3.4e+38 -3.4e+38 -3.4e+38 -3.4e+38 -3.4e+38 -3.4e+38 -3.4e+38 -3.4e+38 -3.4e+38 -3.4e+38 -3.4e+38 -3.4e+38 -3.4e+38 -3.4e+38 -3.4e+38 -3.4e+38 -3.4e+38 -3.4e+38 -3.4e+38 -3.4e+38 -3.4e+38 -3.4e+38 -3.4e+38 -3.4e+38 -3.4e+38 -3.4e+38 -3.4e+38 -3.4e+38 -3.4e+38 -3.4e+38 -3.4e+38 -3.4e+38 -3.4e+38 -3.4e+38 -3.4e+38 -3.4e+38 -3.4e+38 -3.4e+38 -3.4e+38 -3.4e+38 -3.4e+38 -3.4e+38 -3.4e+38 -3.4e+38 -3.4e+38 -3.4e+38 -3.4e+38 -3.4e+38 -3.4e+38 -3.4e+38 -3.4e+38 -3.4e+38 -3.4e+38 -3.4e+38 -3.4e+38 -3.4e+38 -3.4e+38 -3.4e+38 -3.4e+38 -3.4e+38 -3.4e+38 -3.4e+38 -3.4e+38 -3.4e+38 -3.4e+38 -3.4e+38 -3.4e+38 -3.4e+38 -3.4e+38 -3.4e+38 -3.4e+38 -3.4e+38 -3.4e+38 -3.4e+38
49.9595069885254 42.7645874023438 24.2696399688721 14.1016216278076 7.74605274200439 13.3996429443359 32.1804275512695 43.441478729248 34.3215675354004 34.3680953979492 34.9404106140137 36.0327949523926 19.8061809539795 17.1807270050049 18.4036254882812 26.8331813812256 24.0301074981689 33.8531684875488 54.7315902709961 37.9101181030273 28.6630458831787 9.67855548858643 15.0705404281616 22.757007598877 36.3372573852539 38.0086479187012 160.102172851562 341.885314941406 114.881011962891 -3.4e+38 -3.4e+38 -3.4e+38 -3.4e+38 -3.4e+38 -3.4e+38 -3.4e+38 219.257598876953 719.920349121094 262.214630126953 172.980895996094 167.867080688477 124.148338317871 74.0360870361328 36.2175979614258 45.9242057800293 23.7264804840088 28.6635780334473 20.4303226470947 25.2899990081787 25.9994335174561 22.7850933074951 19.9040832519531 21.2873668670654 29.9935741424561 53.6623954772949 41.9950942993164 53.0177841186523 53.7641792297363 47.3311767578125 32.2060012817383 28.1135330200195 24.7053737640381 22.4735412597656 33.5061912536621 21.4178524017334 48.6348304748535 -3.4e+38 -3.4e+38 -3.4e+38 -3.4e+38 -3.4e+38 -3.4e+38 -3.4e+38 -3.4e+38 -3.4e+38 -3.4e+38 -3.4e+38 -3.4e+38 -3.4e+38 -3.4e+38 -3.4e+38 -3.4e+38 -3.4e+38 -3.4e+38 -3.4e+38 -3.4e+38 -3.4e+38 -3.4e+38 -3.4e+38 -3.4e+38 -3.4e+38 -3.4e+38 -3.4e+38 -3.4e+38 -3.4e+38 -3.4e+38 -3.4e+38 -3.4e+38 -3.4e+38 193.885498046875 198.859298706055 81.5905685424805 27.5242233276367 27.3388595581055 71.1411285400391 27.0361061096191 22.1792106628418 51.4967842102051 56.7169532775879 46.3345718383789 70.9369735717773 60.2845840454102 31.7043857574463 69.0747985839844 130.982208251953 121.940895080566 125.38427734375 260.283966064453 208.751159667969 240.145751953125 36.7366104125977 -3.4e+38 -3.4e+38 -3.4e+38 -3.4e+38 -3.4e+38 -3.4e+38 -3.4e+38 -3.4e+38 -3.4e+38 -3.4e+38 -3.4e+38 -3.4e+38 -3.4e+38 -3.4e+38 -3.4e+38 -3.4e+38 -3.4e+38 -3.4e+38 -3.4e+38 -3.4e+38 -3.4e+38 228.542388916016 52.8798561096191 123.988998413086 89.4492645263672 297.893920898438 315.015838623047 161.023727416992 214.050491333008 266.223693847656 193.584838867188 140.892440795898 219.148544311523 177.964462280273 178.042098999023 90.0580139160156 102.866828918457 264.686431884766 139.897476196289 39.3244857788086 262.2548828125 234.570449829102 436.081634521484 252.517196655273 -3.4e+38 -3.4e+38 -3.4e+38 -3.4e+38 -3.4e+38 -3.4e+38 153.448989868164 -3.4e+38 -3.4e+38 -3.4e+38 -3.4e+38 -3.4e+38 -3.4e+38 -3.4e+38 -3.4e+38 -3.4e+38 -3.4e+38 -3.4e+38 -3.4e+38 -3.4e+38 -3.4e+38 -3.4e+38 -3.4e+38 -3.4e+38 -3.4e+38 -3.4e+38 -3.4e+38 -3.4e+38 -3.4e+38 405.170227050781 299.494262695312 115.222526550293 231.512145996094 -3.4e+38 -3.4e+38 -3.4e+38 -3.4e+38 -3.4e+38 -3.4e+38 -3.4e+38 -3.4e+38 -3.4e+38 -3.4e+38 -3.4e+38 -3.4e+38 -3.4e+38 -3.4e+38 -3.4e+38 -3.4e+38 -3.4e+38 -3.4e+38 -3.4e+38 -3.4e+38 -3.4e+38 -3.4e+38 -3.4e+38 -3.4e+38 -3.4e+38 -3.4e+38 -3.4e+38 -3.4e+38 -3.4e+38 -3.4e+38 -3.4e+38 -3.4e+38 -3.4e+38 -3.4e+38 -3.4e+38 -3.4e+38 -3.4e+38 -3.4e+38 -3.4e+38 -3.4e+38 -3.4e+38 -3.4e+38 -3.4e+38 -3.4e+38 -3.4e+38 -3.4e+38 -3.4e+38 -3.4e+38 -3.4e+38 -3.4e+38 -3.4e+38 -3.4e+38 -3.4e+38 -3.4e+38 -3.4e+38 -3.4e+38 -3.4e+38 -3.4e+38 -3.4e+38 -3.4e+38 -3.4e+38 -3.4e+38 -3.4e+38 -3.4e+38 -3.4e+38 -3.4e+38 -3.4e+38 -3.4e+38
